# .PCD v0.7 - Point Cloud Data file format
VERSION 0.7
FIELDS x y z rgb
SIZE 4 4 4 4
TYPE F F F F
COUNT 1 1 1 1
WIDTH 1047
HEIGHT 1
VIEWPOINT 0 0 0 1 0 0 0
POINTS 1047
DATA ascii
3.0591576 1.0519419 -0.050439116 1.1434436e-38
2.8934813 1.1927875 -0.08884304 1.2261657e-38
2.9317989 1.1527269 -0.048636544 1.2263829e-38
3.0302961 1.1148977 -0.056032315 2.5851e-39
2.7533519 1.2657241 -0.090881169 2.4842303e-39
2.8622742 1.2407643 -0.067409039 9.4889178e-39
2.9044325 1.2438171 -0.022564037 1.0971259e-38
2.6664274 1.36865 -0.087218225 4.5953621e-40
2.740284 1.3382452 -0.08138781 2.3005593e-39
2.8574686 1.3445594 -0.064497858 9.5757072e-39
2.9238033 1.3518181 -0.027422426 9.5850777e-39
2.1908338 1.4581884 -0.011103234 7.2736933e-39
2.2610526 1.4613228 -0.041188236 3.4058195e-39
2.3415537 1.4610415 -0.057950202 2.0246941e-39
2.4499125 1.4637423 -0.058458429 3.2225114e-39
2.5523136 1.4584602 -0.064528905 2.3934738e-39
2.6358116 1.4395338 -0.066765286 2.9455658e-39
2.7497301 1.4611039 -0.057868324 7.459172e-39
2.8559384 1.4548726 -0.056557447 8.9324972e-39
2.9392745 1.4491167 -0.028065471 8.7538807e-39
2.1851988 1.5723593 -0.036734946 3.1303116e-39
2.2250636 1.5379335 -0.059958212 3.6770072e-40
2.5911777 1.502252 -0.010673932 7.8283146e-39
2.6507478 1.5100707 -0.019069476 7.9197872e-39
2.7538111 1.52643 -0.02447585 7.7361176e-39
2.853152 1.532299 -0.026313618 8.1059861e-39
2.9343486 1.5265958 -0.015754927 7.7422567e-39
2.1809793 1.6509429 -0.0504242 4.5953621e-40
2.1700807 1.7500023 -0.051040273 2.7550649e-40
2.1706727 1.8496212 -0.053000238 2.7586522e-40
2.1734321 1.9240458 -0.054201394 2.7586522e-40
2.2101707 1.9687574 -0.010620182 4.5917748e-40
2.2211614 2.0004866 -0.004792233 6.4320721e-40
1.38138 -1.1123251 0.023333086 4.1495208e-39
1.4021301 -1.1016011 0.023158969 4.4257406e-39
1.3762281 -1.0721905 0.030757064 5.2554998e-39
1.4496874 -1.0432396 0.032997381 8.6663724e-39
1.5438082 -1.0191954 0.059206702 9.588686e-39
1.6030213 -1.0023577 0.088365398 9.7730815e-39
1.5745177 -0.98384583 0.021573894 8.8511238e-39
1.6213758 -0.94345951 0.054793928 9.3117432e-39
0.98351723 -0.85888898 0.049572356 6.4644981e-40
1.0471683 -0.86903924 0.072739765 9.2915897e-41
1.1508491 -0.87991583 0.078160845 9.2915897e-41
1.2011496 -0.87772769 0.063965403 6.4536521e-40
1.6510736 -0.84801102 0.048923507 8.4816238e-39
1.6842549 -0.77547532 0.062141292 6.8221039e-39
1.7200639 -0.746068 0.040191974 7.467832e-39
1.6664391 -0.64580494 0.053740393 5.348057e-39
1.7211978 -0.66401291 0.063334696 4.2413507e-39
1.5876454 -0.55812854 0.010333017 5.7171954e-39
1.6558166 -0.55575949 0.046823934 2.8591351e-39
1.7376062 -0.52818227 0.057433825 3.78109e-39
1.8338001 -0.5158183 0.036023516 7.3763538e-39
1.7540609 -0.46872169 0.089254417 2.2137685e-39
1.8728414 -0.47160679 0.056577723 7.1919626e-39
1.9246458 -0.42941013 0.04060632 8.4826972e-39
1.9677377 -0.35012716 0.048972812 6.0838158e-39
1.9640259 -0.25004619 0.047907539 5.1575421e-39
2.0185251 -0.20703122 0.095679402 2.7626221e-39
1.9685965 -0.17011751 0.037782375 1.0970895e-38
2.0537086 -0.14761774 0.056718599 1.0601755e-38
2.1194804 -0.11768037 0.056049444 9.4042934e-39
2.1693642 -0.083670802 0.048964169 9.6808817e-39
2.2479131 -0.038094487 0.049436785 9.8656288e-39
2.3068593 -0.0040309927 0.049113799 9.9578245e-39
2.356961 0.034365632 0.046595495 1.0050022e-38
2.4154949 0.084893353 0.054586634 1.0142219e-38
2.4604249 0.150004 0.049203109 1.0142219e-38
2.4972687 0.20585468 0.033462632 1.0142219e-38
2.5233579 0.25418428 0.050488953 9.9581902e-39
2.5507252 0.35073411 0.049509276 7.2845268e-39
2.5544391 0.41741875 0.044615347 3.8743871e-39
2.6395612 0.45250618 0.0473626 1.1989776e-38
2.7511761 0.48144072 0.043849755 1.6323699e-38
2.8242171 0.49506333 0.06054271 1.6508093e-38
2.7881737 0.50696021 0.013155423 1.6324062e-38
2.8516202 0.55120659 0.048888054 1.6324071e-38
2.9062297 0.56619769 0.095054142 1.6416988e-38
2.8824849 0.61999249 0.031421043 1.6047126e-38
2.9412222 0.66026562 0.052201886 1.5955289e-38
3.0140543 0.68976855 0.086757541 1.5863814e-38
2.9834492 0.74967504 0.022600668 1.5402113e-38
3.0302844 0.75452524 0.072698012 1.5586504e-38
2.9899147 0.82145971 0.013715918 1.5124801e-38
3.026587 0.85291052 0.056135051 1.5216996e-38
3.0739608 0.95131594 0.048821945 1.4939324e-38
2.9715328 1.09744 0.089073934 5.9026937e-39
3.0495725 1.0687795 0.043655667 6.4558675e-39
3.1158037 1.0418724 0.059819918 1.4384339e-38
2.9342895 1.1466777 0.047922287 1.2263829e-38
3.0126777 1.1052321 0.025527852 3.1382738e-39
2.899703 1.2309459 0.0087489318 1.0510282e-38
2.9071949 1.2467041 0.05045392 1.0510647e-38
2.9331601 1.3472617 0.048397362 9.4968505e-39
2.1914968 1.463312 0.0062863724 7.0903839e-39
2.2518497 1.4587511 0.017537659 3.684207e-39
2.3422682 1.4663249 0.026252517 2.3041607e-39
2.4386196 1.4787977 0.017097939 3.1339185e-39
2.5272527 1.492704 0.0051340968 3.7792837e-39
2.9741552 1.4519416 0.048343167 8.2983157e-39
2.0961099 1.5972512 0.0087831272 6.6290442e-39
2.1560884 1.5645149 0.016590223 5.9851209e-39
2.2512894 1.5531145 0.040567528 2.026136e-39
2.3578472 1.5593953 0.070810579 4.237392e-39
2.4497669 1.5371525 0.068871796 2.2144944e-39
2.552201 1.5339184 0.058724128 1.3832904e-39
2.6429977 1.5323293 0.054338906 4.5175761e-39
2.7507725 1.5548885 0.047834683 5.5317252e-39
2.8534281 1.5713317 0.050472062 6.1774589e-39
2.9554532 1.5444999 0.051506344 7.0075853e-39
2.0687623 1.6514542 0.023610065 6.0769536e-39
2.1481442 1.6422684 0.050209679 2.0264948e-39
2.2426476 1.6416416 0.078982905 3.3190357e-39
2.3316612 1.6184638 0.086526364 3.4998256e-39
2.0728991 1.7448448 0.035477363 5.156442e-39
2.1334333 1.7430834 0.071873084 8.2939773e-40
2.2222137 1.7173942 0.090838328 4.1491579e-39
2.0975711 1.806398 0.039059337 5.8932798e-39
2.1342533 1.8515999 0.052180555 3.0384775e-39
2.1661859 1.9261068 0.055963304 2.7622521e-39
2.2123029 1.9736595 0.0061190436 1.0112667e-39
2.2215531 2.000839 0.0080260867 1.1952964e-39
1.4775163 -1.0126945 0.1291016 7.0072126e-39
1.5600321 -1.0177114 0.14180365 9.8656358e-39
1.6024207 -1.0028694 0.1122551 1.0234061e-38
1.4442353 -0.99307865 0.16069408 1.060356e-38
1.5693858 -0.98771811 0.17970835 8.2068348e-39
1.6203091 -0.94530123 0.1476831 1.0511007e-38
0.9887327 -0.86853325 0.14594504 1.6602416e-39
1.050386 -0.87750465 0.14854851 3.6950279e-40
1.1507815 -0.87955743 0.15175791 3.6950139e-40
1.6693523 -0.85201442 0.15115233 7.8369719e-39
1.6708947 -0.75114202 0.1486762 5.6231991e-39
1.7406561 -0.70927143 0.13090478 6.4608547e-40
1.8425956 -0.71173304 0.13598838 5.5424998e-40
1.9283088 -0.71773005 0.13410458 5.5424998e-40
1.6448766 -0.69396514 0.12167706 1.5676788e-39
1.7628884 -0.66531593 0.111082 6.4644561e-40
1.8363705 -0.66139424 0.12022094 5.5424998e-40
1.9035145 -0.69944912 0.12908013 6.4644561e-40
1.6972466 -0.55833662 0.11054272 9.230325e-40
1.7478495 -0.52970582 0.12741649 1.1074238e-39
1.8338531 -0.50468737 0.17928205 1.2921751e-39
1.7661146 -0.45939344 0.13363993 1.9368215e-39
1.8651779 -0.43694508 0.15460236 7.8380509e-39
1.9356679 -0.40712893 0.14691237 9.1287883e-39
2.0428259 -0.41003332 0.17807075 7.376714e-39
2.1430681 -0.40962529 0.18645844 1.0142219e-38
1.9825097 -0.36168963 0.11479306 8.390503e-39
2.0413277 -0.35010207 0.14204969 1.0788304e-38
2.1312101 -0.35426024 0.18182996 1.3185389e-38
1.9906784 -0.26835659 0.11342366 4.7023303e-39
2.0441153 -0.24968754 0.14863853 7.928806e-39
2.1160629 -0.22471985 0.18130361 1.0691425e-38
2.0891674 -0.18832344 0.11587494 1.0226851e-38
2.1446569 -0.14906713 0.1508121 9.6790768e-39
2.2102561 -0.11063789 0.19101231 9.4046535e-39
2.1779411 -0.087709919 0.12424665 9.6812404e-39
2.2522275 -0.056069955 0.14753221 9.773436e-39
2.3208113 -0.019412683 0.16781096 9.9578273e-39
2.3661077 0.024048816 0.14547445 1.0049663e-38
2.4282453 0.073851302 0.15291972 1.0142219e-38
2.4687276 0.14643365 0.14717869 9.9581902e-39
2.5122259 0.18948108 0.18250455 1.1435141e-38
2.4993536 0.20298898 0.10999086 9.9585531e-39
2.5360839 0.24929895 0.14987589 1.0604288e-38
2.5728745 0.34726185 0.13829815 7.8373432e-39
2.621326 0.35856456 0.18518901 9.9574755e-39
2.5728862 0.41239488 0.13042356 4.4275707e-39
2.6470909 0.42701641 0.16540544 8.945867e-39
2.7487545 0.46086454 0.15563038 1.3557462e-38
2.8517079 0.48680097 0.14575915 1.6692843e-38
2.9156752 0.49479172 0.18439375 1.7154179e-38
2.8933783 0.53175581 0.1062642 1.6416622e-38
2.9509072 0.54362881 0.13030523 1.6601375e-38
3.0363603 0.5624404 0.17252991 1.6785768e-38
3.1069679 0.59598017 0.1867869 1.6969439e-38
2.9706576 0.62909847 0.10730982 1.5863811e-38
3.0444865 0.65287769 0.11963698 1.6693569e-38
3.1417809 0.64132822 0.15264277 1.6509178e-38
3.2434499 0.66097027 0.16048943 1.4849654e-38
3.3570356 0.68047494 0.17614 9.5941441e-39
3.4051046 0.69738227 0.19078666 3.1400885e-39
3.0825989 0.76027322 0.11079677 1.567906e-38
3.1488118 0.76307595 0.14753389 1.5955288e-38
3.2342961 0.7502566 0.17444457 1.68776e-38
3.3597991 0.73597765 0.17927486 1.5218799e-38
3.4165423 0.71690744 0.18827224 1.3742946e-38
3.0676928 0.85547781 0.14598401 1.5401388e-38
3.125047 0.81509113 0.1772017 1.5770534e-38
3.0770383 0.94801086 0.14923988 1.5123717e-38
3.1013806 0.99908257 0.18346632 1.5030439e-38
2.9812429 1.0948955 0.14800429 5.4424372e-39
3.0302987 1.0627882 0.15012836 4.3353652e-39
3.1174698 1.0342275 0.14857896 1.4753483e-38
2.9300086 1.1477998 0.15074486 1.3001391e-38
2.8989468 1.2138575 0.1919587 9.8660086e-39
2.9096386 1.2493676 0.14698932 9.8656429e-39
2.9281635 1.3471092 0.15048347 8.2975913e-39
2.9764261 1.4514449 0.14875795 6.3611369e-39
2.3908689 1.5897833 0.11533069 4.0551714e-39
2.4325767 1.5842383 0.13057438 3.872585e-39
2.5560865 1.5822449 0.11580153 1.5676872e-39
2.6534879 1.5577703 0.12872764 3.5945422e-39
2.7466514 1.5611242 0.15144394 8.1106637e-39
2.8548343 1.5774132 0.1488816 7.6518799e-39
2.9610627 1.549268 0.15126219 7.2841834e-39
2.2654235 1.6666774 0.13700476 4.7948818e-39
2.3514175 1.6376784 0.15114494 5.3440997e-39
2.4415548 1.6197536 0.17653422 4.4225162e-39
2.5538716 1.6236881 0.16437787 1.8439224e-39
2.6411438 1.6322747 0.16713594 1.9350306e-39
2.7562189 1.6497887 0.16851437 5.161142e-39
2.8287585 1.6756973 0.18945397 6.7284733e-39
2.1625121 1.7629746 0.13326858 8.2976067e-40
2.2478633 1.7476246 0.15803963 2.9506161e-39
2.3087943 1.7336469 0.19070017 8.2986717e-39
2.7801034 1.7064122 0.1898409 3.5019934e-39
2.8395545 1.7217094 0.18991451 4.977485e-39
2.1572576 1.8443649 0.15388228 2.7658689e-40
2.207818 1.8046079 0.19360149 4.6097815e-40
2.1759663 1.9347992 0.15130785 1.8439126e-40
1.4599378 -1.0070031 0.2597 1.1156376e-38
1.5435283 -1.0108269 0.25044253 1.1063822e-38
1.0660921 -0.90973872 0.26372808 1.9368299e-39
1.1484647 -0.91888982 0.25750151 1.568046e-39
1.2055295 -0.9234094 0.29109851 1.8446329e-39
1.4530673 -0.99685013 0.21084842 1.1064178e-38
1.5888166 -0.96741414 0.25503337 1.023514e-38
1.6155521 -0.9172895 0.24030843 1.0142584e-38
0.99882501 -0.87969768 0.20498946 2.5821979e-39
1.0364125 -0.88893056 0.22674935 1.7524372e-39
1.1677963 -0.8819381 0.23115662 1.4758475e-39
1.2073482 -0.89161992 0.29016179 2.0290199e-39
1.6505508 -0.85237539 0.25063771 9.4050178e-39
1.6574954 -0.75647938 0.24681172 7.3763552e-39
1.5877007 -0.68063527 0.27233079 4.1509585e-39
1.6193101 -0.69227642 0.25954434 3.5052276e-39
2.0705562 -0.50505471 0.29239416 9.2213412e-39
1.8854706 -0.44309935 0.21063454 9.7734402e-39
1.9479123 -0.43481591 0.24666798 1.0050746e-38
2.0370843 -0.44283098 0.26327994 8.2990276e-39
2.1543198 -0.4253318 0.2274293 8.4830601e-39
2.2512598 -0.42618889 0.24307257 1.0050024e-38
2.3122358 -0.43411729 0.26696506 1.0511001e-38
2.096555 -0.30156583 0.20417649 1.9179181e-38
2.1542282 -0.34788486 0.20917104 1.4106626e-38
2.2340207 -0.38295993 0.23183471 1.0603194e-38
2.0729661 -0.27979359 0.20688398 1.3555613e-38
2.1490939 -0.23432675 0.22557136 1.0140052e-38
2.2301173 -0.22150499 0.27360269 1.1610854e-38
2.3194578 -0.24242964 0.28613499 1.1612291e-38
2.1732407 -0.17685466 0.23006099 9.5861609e-39
2.2281287 -0.13785952 0.25722522 9.3120977e-39
2.2716424 -0.083311588 0.2465512 9.5890434e-39
2.3409309 -0.034393124 0.25134221 9.8656316e-39
2.3893251 0.01030279 0.23963191 9.9578273e-39
2.4388494 0.058094043 0.25289512 1.0142217e-38
2.4844878 0.12627722 0.2460627 1.0050026e-38
2.5237057 0.17464167 0.25434592 1.2173789e-38
2.5722136 0.23216613 0.24457198 1.8261964e-38
2.6255333 0.27977988 0.26028609 1.0790496e-38
2.5997207 0.30115291 0.20254454 1.0142593e-38
2.6450858 0.34996572 0.2505596 9.9574741e-39
2.6731477 0.41429973 0.24806292 9.6819733e-39
2.7430429 0.44397998 0.24963482 9.3150068e-39
2.8479507 0.47084743 0.2505047 1.5954905e-38
2.9317017 0.4907116 0.2583431 1.75226e-38
2.9827299 0.50527471 0.24101278 1.7430408e-38
3.0646009 0.54495758 0.24848309 1.7430777e-38
3.1215732 0.58606523 0.25639734 1.7430417e-38
3.1734793 0.60745156 0.24605542 1.6969797e-38
3.2472973 0.6293177 0.24241087 1.6231873e-38
3.3559272 0.65895158 0.24954401 1.4756382e-38
3.4375501 0.68807876 0.25274694 1.0054403e-38
3.1957204 0.79895592 0.20748818 1.5955287e-38
3.2540271 0.7790029 0.25000313 1.6231875e-38
3.3481905 0.75429511 0.24886394 1.6140755e-38
3.4483495 0.72990918 0.25247955 1.4112449e-38
3.0836744 0.87505317 0.24822198 1.558578e-38
3.1406085 0.83040249 0.25130081 1.5862729e-38
3.2106588 0.80381489 0.26663065 1.6231873e-38
3.0866575 0.93901032 0.25221154 1.5308468e-38
3.1045265 0.97764254 0.25060883 1.5123715e-38
2.9880042 1.0966092 0.23681848 8.9476803e-39
3.046591 1.0635448 0.2533133 5.7193857e-39
3.1274519 1.0275292 0.24440415 1.5030431e-38
2.8911774 1.1769625 0.26299742 1.161737e-38
2.9360628 1.1342028 0.24658301 1.3001754e-38
2.8974969 1.211923 0.23381713 9.9582042e-39
2.9113443 1.2597361 0.25325125 9.6812544e-39
2.9453058 1.3500767 0.24932116 9.2199091e-39
2.9770048 1.4444847 0.25051975 6.4540528e-39
3.0019836 1.4969543 0.24534823 5.9008875e-39
2.7833765 1.5872778 0.20346601 1.1059083e-38
2.8653901 1.5911485 0.21007608 7.3756616e-39
2.9685421 1.5616066 0.24169028 7.6526128e-39
3.0054514 1.521934 0.27131867 7.2838261e-39
2.2977874 1.6750219 0.20305488 3.4119502e-39
2.3541627 1.6739274 0.21451935 5.1625895e-39
2.4430602 1.6699318 0.21976238 7.279136e-39
2.5521321 1.6781656 0.21179396 2.5789665e-39
2.636349 1.6826978 0.2120278 2.0272375e-39
2.7568283 1.6535395 0.20281458 7.1879731e-39
2.8616889 1.6389031 0.21425737 8.4798189e-39
2.9503782 1.6307311 0.25405198 6.821776e-39
3.0309312 1.6767852 0.27723309 5.4388443e-39
2.2635684 1.7956524 0.20345557 9.2159476e-40
2.3569803 1.7514534 0.24884421 5.8086806e-39
2.4407442 1.7211008 0.27102312 2.7651486e-39
2.5510337 1.7331741 0.26740175 4.9767661e-39
2.6543934 1.7443314 0.2575202 4.5154251e-39
2.7462943 1.7539504 0.26062906 4.7001723e-39
2.8549924 1.7624832 0.24958669 4.8849208e-39
2.9478915 1.7692888 0.25120923 4.8849236e-39
3.0498648 1.7599881 0.27185893 4.3317653e-39
3.1035581 1.7574222 0.29264954 4.6087179e-39
2.1830478 1.8494726 0.21813753 4.6097815e-40
2.2523384 1.8250349 0.23216584 4.6061942e-40
2.345088 1.8263792 0.26266435 6.4537081e-40
2.9855063 1.8023959 0.29210055 4.6076151e-39
3.0160923 1.8038124 0.29201016 4.6076151e-39
2.1869676 1.9360567 0.2151783 6.4501068e-40
2.2258923 1.9467238 0.25130308 1.3822156e-39
2.3612874 1.9476056 0.27287346 3.5949149e-39
2.4156103 1.9742458 0.28880754 4.3324813e-39
2.2790637 2.0362959 0.26091141 2.9499014e-39
2.3445375 2.0520887 0.28220552 3.9633359e-39
2.4133751 2.0254774 0.29288375 4.3321226e-39
2.3507707 2.1165271 0.28956288 4.2399214e-39
1.2604864 -1.0159752 0.34653708 2.3052523e-39
1.4791172 -1.0243752 0.33537912 1.1340409e-38
1.5446924 -1.0206647 0.35626659 1.1248213e-38
1.1751105 -0.96945047 0.30850548 1.7524386e-39
1.2357639 -0.95555627 0.32441124 1.9371872e-39
1.5899152 -0.97424823 0.33217528 1.0972345e-38
1.6073684 -0.9348712 0.3621892 1.0972705e-38
1.2188684 -0.89358181 0.31293955 2.581472e-39
1.654839 -0.86023831 0.34777442 1.0327696e-38
1.7261816 -0.81881201 0.36740723 8.3926806e-39
1.679284 -0.74189526 0.33251432 7.8391425e-39
1.7224932 -0.76855117 0.36846375 6.0870696e-39
1.5909033 -0.67832643 0.31385756 1.6616779e-39
1.6653508 -0.68616831 0.3402549 1.3840092e-39
1.7306223 -0.66767454 0.38080719 3.0428061e-39
1.8161918 -0.64375246 0.3972604 3.5026983e-39
2.0929723 -0.50395566 0.30679742 9.7745164e-39
2.1438258 -0.51087362 0.35754493 9.9589077e-39
2.2317894 -0.53835744 0.3944262 9.4068143e-39
1.9856105 -0.42059764 0.35549796 8.0224407e-39
2.0504766 -0.44786116 0.35016236 9.7745164e-39
2.1219616 -0.47925362 0.37094218 1.014294e-38
2.2656796 -0.20843254 0.32949907 9.6718727e-39
2.3132453 -0.21570389 0.34832102 1.1520823e-38
2.2784925 -0.14914696 0.34975618 9.4046507e-39
2.2901616 -0.092944458 0.34360325 9.5890448e-39
2.3532357 -0.048777338 0.34993324 9.773436e-39
2.4061224 -0.0067107086 0.37106889 9.9578273e-39
2.3978968 0.0017942733 0.30943748 1.0049661e-38
2.4443412 0.049284961 0.35075536 1.0050023e-38
2.488343 0.11901233 0.350739 9.9581902e-39
2.5346138 0.16863666 0.34960058 1.2265982e-38
2.582855 0.22908945 0.3528727 1.6878314e-38
2.6339011 0.27994421 0.34533703 9.7752563e-39
2.660923 0.34986991 0.350263 9.9571154e-39
2.687562 0.40859661 0.34238192 9.6819719e-39
2.7396426 0.4305743 0.35368153 9.1306086e-39
2.8452539 0.46167481 0.35371205 1.6876862e-38
2.950268 0.48834291 0.35134482 1.8352363e-38
2.9952002 0.50252366 0.30465543 1.7983225e-38
3.0675819 0.53254688 0.35308495 1.8169061e-38
3.1256411 0.57492763 0.34599811 1.7892115e-38
3.1928461 0.60345984 0.32971457 1.7522972e-38
3.246774 0.61723083 0.34877104 1.715383e-38
3.3550019 0.64610821 0.35460028 1.5770894e-38
3.4585025 0.68227786 0.35630521 1.0330626e-38
3.261945 0.77881044 0.35147974 1.6509181e-38
3.3455355 0.75099564 0.35026726 1.6233313e-38
3.4641035 0.72861308 0.34956774 1.4297919e-38
3.0632768 0.86168784 0.35052857 1.5862725e-38
3.1476731 0.81750333 0.34853235 1.6139676e-38
3.2110553 0.80304539 0.34114233 1.6416265e-38
3.0510113 0.94710851 0.3490791 1.5308465e-38
2.9975026 1.0996752 0.30705085 1.3648576e-38
3.0636098 1.0606971 0.34823585 6.2725623e-39
3.1105263 1.0285659 0.35779816 1.4385056e-38
2.8833115 1.1601456 0.35106951 1.1525534e-38
2.9537241 1.1219313 0.34602624 1.318615e-38
3.0148585 1.104494 0.36711079 1.3187958e-38
2.8981597 1.2035279 0.33473819 9.7730913e-39
2.918654 1.2523561 0.35087797 9.4961443e-39
2.9585357 1.3468163 0.35007563 8.8511322e-39
2.9912302 1.4253846 0.3217676 5.7168493e-39
3.018615 1.4575031 0.35578132 8.3901653e-39
2.9879029 1.5892907 0.30703142 7.4685859e-39
3.0237491 1.5463512 0.34902281 7.8370013e-39
2.9914103 1.6090018 0.31108266 7.3760315e-39
3.0574355 1.6390506 0.35553223 6.3615167e-39
3.1088777 1.6905816 0.37104011 5.3462872e-39
2.3939829 1.7706174 0.33936077 2.0283067e-39
2.4228404 1.7305431 0.3542254 2.3038174e-39
2.556953 1.7540743 0.34714562 4.792742e-39
2.6464741 1.7650747 0.35256553 4.9771291e-39
2.7467108 1.7771106 0.3495273 4.9767619e-39
2.8506362 1.7888771 0.35026607 4.7920049e-39
2.9192324 1.7957948 0.33879155 4.7923623e-39
3.0699358 1.786429 0.34444299 3.8711375e-39
3.1270351 1.7564943 0.3550958 4.5165209e-39
2.3916574 1.8210492 0.33253956 2.0286696e-39
2.4175584 1.8582463 0.36198723 2.3971004e-39
2.9671988 1.805951 0.35753584 4.6998079e-39
3.026577 1.8063109 0.35094824 4.5154195e-39
3.1450372 1.8003519 0.39929587 4.3321184e-39
2.3979328 1.9244556 0.30098367 1.7510093e-39
2.4474683 1.9541426 0.35113949 4.6087235e-39
2.3834913 2.0745721 0.30456457 3.9629772e-39
2.4459317 2.050931 0.35169035 4.4239693e-39
2.3833287 2.1367364 0.31013748 4.147367e-39
2.4358876 2.1492188 0.36076906 4.1470167e-39
4.7432194 -1.7086282 0.48759919 5.5424998e-40
4.4759097 -1.6123987 0.43911982 4.6205435e-40
4.5588994 -1.635703 0.45666498 5.5424998e-40
4.6436753 -1.6651577 0.471854 5.5424998e-40
4.7278314 -1.6872457 0.48656404 6.4644561e-40
4.2650723 -1.5179859 0.4061254 2.7766309e-40
4.360559 -1.5536942 0.42553857 4.6205435e-40
4.4703522 -1.5910403 0.44502699 7.3864124e-40
4.5001287 -1.588657 0.4609724 8.3083687e-40
1.4844967 -1.3077099 0.44304776 8.3041129e-39
1.5291899 -1.3285019 0.48078701 1.116038e-38
1.497205 -1.2931018 0.44425344 6.9204596e-39
1.5314031 -1.2444788 0.47035003 8.0231834e-39
1.5502262 -1.1516998 0.47034678 1.134113e-38
1.499254 -1.0564845 0.40177134 1.1157096e-38
1.5621239 -1.052696 0.44461179 1.134041e-38
1.6139228 -1.0157483 0.46851137 1.0787954e-38
1.5983965 -0.99894404 0.40239814 1.0511727e-38
1.6333672 -0.94851524 0.44986644 1.0972346e-38
1.6753564 -0.87186646 0.44219458 1.0971625e-38
1.7403928 -0.82708734 0.45638669 8.6670955e-39
1.7775611 -0.7590245 0.44266629 7.376351e-39
1.8073571 -0.73651499 0.48357931 7.6540141e-39
1.7764239 -0.67916524 0.4210611 6.2707251e-39
1.8470775 -0.65152448 0.45807263 9.405008e-39
1.9148037 -0.61362904 0.4425832 8.4830545e-39
1.9368868 -0.55050349 0.45584556 9.3135383e-39
2.0477619 -0.52013505 0.42643681 7.1926814e-39
2.173708 -0.51457244 0.42502972 9.7741577e-39
2.2438457 -0.54325438 0.42943546 9.4982897e-39
1.9746618 -0.44965148 0.45821857 7.4699872e-39
2.0330391 -0.43722343 0.42270705 9.4972093e-39
2.1412146 -0.45417294 0.42054093 1.005002e-38
2.2522802 -0.41199988 0.43954596 1.0045336e-38
2.3090801 -0.4131951 0.44417396 9.0232649e-39
1.9984239 -0.3998898 0.48292384 1.0604273e-38
2.0489511 -0.38712513 0.46490118 9.7730731e-39
2.1490581 -0.34577492 0.47216853 1.0416284e-38
2.2238584 -0.35231653 0.4558394 1.0500198e-38
2.1444297 -0.24352211 0.47394803 1.0603198e-38
2.2365236 -0.24687941 0.46093908 1.0135735e-38
2.1548216 -0.19587831 0.48539254 1.0142939e-38
2.2803626 -0.15809837 0.45963064 9.220621e-39
2.3053184 -0.14123102 0.44200286 9.4046521e-39
2.296329 -0.096130364 0.46615824 9.681239e-39
2.3532238 -0.060727652 0.44766095 9.773436e-39
2.4076102 -0.013528323 0.46004742 9.9578273e-39
2.4448047 0.048621267 0.45008415 1.0050022e-38
2.4883282 0.1211748 0.45036101 9.8656386e-39
2.5355067 0.17099391 0.44911462 1.1712815e-38
2.5728157 0.23732145 0.45255578 1.1620265e-38
2.6151993 0.28678626 0.44056523 1.0050029e-38
2.6415014 0.34774685 0.45013008 1.0048948e-38
2.6923568 0.40387961 0.4412798 9.7741675e-39
2.7430131 0.4234201 0.44515726 9.2220839e-39
2.8491189 0.45355457 0.44820672 1.7706618e-38
2.9518785 0.48114359 0.45069286 1.9366867e-38
3.011039 0.49721542 0.467033 1.936723e-38
3.0620053 0.53327733 0.45002708 1.8815143e-38
3.1416171 0.57960063 0.44837385 1.8353449e-38
3.2037601 0.5976004 0.48763925 1.789283e-38
3.2616544 0.61424065 0.442238 1.724674e-38
3.3610723 0.64151257 0.44905737 1.577089e-38
3.4453611 0.68066895 0.45244679 9.313953e-39
3.1958787 0.79899549 0.4564625 1.6785047e-38
3.2490721 0.77004015 0.45268309 1.6969801e-38
3.3520293 0.73739576 0.44527403 1.5771617e-38
3.4424491 0.7175051 0.44395807 1.3096137e-38
3.0756495 0.86289543 0.43690312 1.6138953e-38
3.1376605 0.82414031 0.45949 1.6508459e-38
3.2018974 0.80050027 0.40882277 1.6600656e-38
3.0666072 0.94833225 0.45148429 1.5584692e-38
2.9969797 1.0976809 0.48606512 1.4017355e-38
3.0702865 1.0612667 0.45023617 6.9179303e-39
3.1054075 1.0389097 0.46909183 9.3146509e-39
2.8880384 1.1554857 0.44710523 1.1709564e-38
2.9459414 1.1274276 0.45326543 1.2632252e-38
3.0214915 1.1050432 0.42580771 1.3465265e-38
2.9285097 1.2518789 0.44947025 9.4964974e-39
2.9608436 1.3468854 0.45127356 8.851128e-39
2.9972138 1.4061595 0.46885586 9.2199105e-39
3.0161753 1.4549642 0.4480845 8.4823525e-39
3.0404384 1.5436654 0.44804838 7.9288242e-39
3.0881264 1.6278132 0.43122187 6.5455394e-39
3.1148803 1.6613023 0.46295756 5.80761e-39
2.397783 1.7386928 0.49323788 2.9492806e-39
2.4190009 1.7376226 0.44915611 1.8432288e-39
2.5573971 1.760061 0.45070803 4.055198e-39
2.6476705 1.7760139 0.44878253 4.1473824e-39
2.7523174 1.7922194 0.44973448 4.147367e-39
2.8417115 1.7971299 0.42643252 4.423584e-39
2.9736762 1.7973343 0.48254505 4.2384682e-39
3.0504196 1.7888441 0.4557097 3.9622429e-39
3.1528409 1.7626424 0.4516114 4.1480873e-39
2.4467568 1.8541945 0.453298 4.0548883e-39
2.8574355 1.8023429 0.46950275 4.0544413e-39
2.9444311 1.8039955 0.44497582 4.331024e-39
3.01913 1.8051718 0.42349854 4.3313855e-39
3.1502204 1.8019732 0.41955224 4.1477257e-39
2.4547734 1.9485471 0.4510687 4.2392684e-39
2.4532523 2.0531023 0.45295316 4.23889e-39
2.4350133 2.149328 0.44930151 4.2392319e-39
5.2585235 -1.9170519 0.57659012 6.4644561e-40
5.3575702 -1.93221 0.58966684 6.4644561e-40
5.0407996 -1.8194661 0.53817266 5.5424998e-40
5.1589608 -1.8546973 0.55823064 6.4644561e-40
5.2087188 -1.8613495 0.56361467 6.4644561e-40
5.3240838 -1.8795542 0.5837788 6.4644561e-40
4.8355904 -1.7409395 0.50331277 5.5424998e-40
4.9334784 -1.7727226 0.52049577 5.5424998e-40
5.0326004 -1.7875366 0.53729737 6.4644561e-40
4.8091769 -1.6977587 0.50650591 8.3083687e-40
1.559516 -1.3481734 0.55242234 1.1344769e-38
1.5460327 -1.239804 0.55153 8.5756327e-39
1.5773101 -1.1565539 0.5468533 1.1340411e-38
1.6068091 -1.1205142 0.58133048 1.1248214e-38
1.5883762 -1.0822834 0.5158031 1.1156019e-38
1.628382 -1.0438455 0.55404091 1.0879791e-38
1.6702222 -0.95727265 0.5478856 1.0603562e-38
1.705857 -0.91617471 0.57598019 1.0787591e-38
1.6917468 -0.88714266 0.51409876 1.0695398e-38
1.7440779 -0.84513587 0.55203474 1.0050027e-38
1.7940989 -0.79257005 0.54950219 9.3124621e-39
1.824051 -0.7447471 0.55169564 9.8659918e-39
1.8682979 -0.66525429 0.54235214 1.0142936e-38
1.9104865 -0.62093025 0.5624792 1.0603557e-38
1.935724 -0.54956311 0.54928273 9.5894077e-39
1.9805185 -0.45192853 0.54888713 8.2993877e-39
2.0025866 -0.40174162 0.55947739 1.069611e-38
2.046149 -0.38293883 0.55187154 9.4972051e-39
2.1334333 -0.33537802 0.5502221 1.0603195e-38
2.1386466 -0.25042695 0.55080688 1.0419526e-38
2.1632354 -0.18745738 0.55422491 9.1287869e-39
2.2479022 -0.13993448 0.54693735 9.3124565e-39
2.2919223 -0.094028331 0.54947054 9.589042e-39
2.3549306 -0.055594221 0.55067945 9.8656288e-39
2.4056592 -0.010957069 0.54736304 9.9578259e-39
2.439698 0.048489038 0.55002123 1.0049661e-38
2.486872 0.11942911 0.54808408 9.9578343e-39
2.5422862 0.16989595 0.55210763 1.226599e-38
2.5700874 0.24917471 0.55090612 1.1249665e-38
2.6006029 0.29750332 0.50275666 1.0325531e-38
2.588676 0.32622954 0.56656957 1.0508121e-38
2.6206479 0.36093184 0.53703827 1.0141141e-38
2.6923351 0.40510052 0.55205637 7.9317038e-39
2.7426274 0.41820234 0.54673117 1.0605741e-38
2.8546026 0.44601563 0.5465036 1.899771e-38
2.9567862 0.47308308 0.54907286 2.0196618e-38
3.0182858 0.49343058 0.55512571 2.001295e-38
3.0626092 0.52713531 0.549137 1.9644534e-38
3.1365733 0.56966054 0.54782861 1.9183562e-38
3.220485 0.59374583 0.55900985 1.8353802e-38
3.2673225 0.60806942 0.54467016 1.7339652e-38
3.3499856 0.63038594 0.55290818 1.6048912e-38
3.4402919 0.67650127 0.55074942 9.9632839e-39
3.2594202 0.77093947 0.54785645 1.743114e-38
3.342664 0.73116291 0.55647147 1.6878326e-38
3.4281914 0.71429527 0.54691827 1.2729877e-38
3.0937357 0.88712865 0.54668087 1.6323343e-38
3.1334078 0.84331208 0.54891783 1.6784684e-38
3.2086031 0.80392092 0.55736506 1.7245668e-38
3.0777256 0.94498062 0.544173 1.5953832e-38
3.107404 0.96844232 0.58450145 1.6045665e-38
2.9862041 1.0869342 0.5626058 1.4385776e-38
3.0676341 1.0563612 0.549739 6.2729224e-39
3.105583 1.0317895 0.55015802 9.1302596e-39
2.892967 1.1410276 0.52875584 1.3091777e-38
2.9291234 1.1340239 0.55377847 1.1894317e-38
2.9532783 1.2526972 0.54952133 9.1280666e-39
2.9719663 1.3467355 0.55067796 8.7592855e-39
2.9971523 1.41154 0.56547344 8.1139161e-39
3.0080931 1.4584849 0.54694706 7.9295304e-39
3.0514202 1.5450301 0.54877949 7.2838037e-39
3.1019681 1.5989342 0.55045772 6.7306299e-39
2.3708005 1.6895167 0.58506912 8.9397531e-39
2.4190018 1.6937536 0.58843261 9.5840379e-39
3.0976543 1.6034144 0.51170456 6.9146666e-39
3.1408749 1.651976 0.549402 5.9005119e-39
2.1833675 1.778309 0.59758884 8.8471945e-39
2.2142978 1.7824712 0.59681958 7.5557523e-39
2.3665309 1.7461213 0.55368274 5.7123806e-39
2.4444056 1.7228138 0.54446745 5.4375761e-39
2.5516701 1.7378169 0.55035627 4.5357593e-39
2.6473024 1.7537628 0.55645847 4.0664687e-39
2.7515252 1.765126 0.56087786 4.1579314e-39
2.8489382 1.7827672 0.54763585 3.9626282e-39
2.9481072 1.7783335 0.55000728 4.146274e-39
3.045603 1.7762941 0.54668361 3.8704032e-39
3.1587052 1.760066 0.54713786 3.7792921e-39
3.2079089 1.7439843 0.58017343 4.2406276e-39
2.1566391 1.8866823 0.59383458 3.7762681e-39
2.2710166 1.8685533 0.59754282 3.7780646e-39
2.3603055 1.8504764 0.56726861 5.2482005e-39
2.4302115 1.8591576 0.51420897 3.9620649e-39
2.7654388 1.8008776 0.54659271 3.7786041e-39
2.8490808 1.8004204 0.50145364 3.9622471e-39
2.9169476 1.8006499 0.50247002 4.0544371e-39
2.1614709 1.9215701 0.57763571 4.5117102e-39
2.2484493 1.9364529 0.57536 4.3323608e-39
2.3513284 1.9411471 0.56710958 5.342924e-39
2.425319 1.953359 0.52534342 3.5932544e-39
2.2762907 2.0258667 0.56428123 3.502184e-39
2.3624983 2.0522478 0.54266435 3.2247997e-39
2.4183974 2.0328293 0.51546043 3.3166128e-39
2.3712778 2.1203234 0.52262419 3.0407196e-39
2.4094977 2.141099 0.50422853 3.7782748e-39
5.7891641 -2.102181 0.65982968 6.4644561e-40
5.8785319 -2.1091921 0.68697482 6.4644561e-40
5.9534979 -2.1549873 0.68714875 6.4644561e-40
6.0593171 -2.1390893 0.69936234 6.4644561e-40
5.5576897 -2.0261066 0.62542909 5.5424998e-40
5.6603327 -2.0288546 0.63800776 6.4644561e-40
5.7511663 -2.0655866 0.65861619 6.4644561e-40
5.8341885 -2.0747354 0.67170954 6.4644561e-40
5.9251323 -2.0831707 0.67532682 7.3864124e-40
5.465169 -1.9627832 0.60713303 6.4644561e-40
5.5206637 -1.9648733 0.613298 6.4644561e-40
5.6805329 -1.9971738 0.63925314 7.3864124e-40
1.5429271 -1.3383862 0.64459926 1.1897222e-38
1.5485781 -1.2434593 0.65084463 8.8525783e-39
1.5846798 -1.1764355 0.64034045 1.1248214e-38
1.6178652 -1.1316246 0.65495783 1.1063823e-38
1.6474708 -1.0508969 0.64966375 1.0787233e-38
1.673385 -0.96320939 0.64820176 1.0603198e-38
1.7112914 -0.91710097 0.65307808 1.0603197e-38
1.7559777 -0.85146242 0.64857215 1.0511002e-38
1.803849 -0.80441844 0.68527061 1.0326608e-38
1.7979541 -0.79579335 0.61713779 1.0603197e-38
1.8356587 -0.74795085 0.65058506 9.8656316e-39
1.8871471 -0.68901491 0.63957131 1.0326606e-38
1.9282002 -0.64331514 0.65358257 1.0418803e-38
1.9514333 -0.54744744 0.64967579 9.4046535e-39
1.9916008 -0.46254101 0.63992351 9.6819592e-39
2.0039189 -0.42590812 0.66903251 9.5894049e-39
2.0589638 -0.37571949 0.65184319 9.6819578e-39
2.1118827 -0.32594496 0.64673322 1.0603914e-38
2.1295881 -0.25133088 0.65073282 1.0327687e-38
2.1730461 -0.17659946 0.64863956 9.1284253e-39
2.2314472 -0.127289 0.64635843 9.4968463e-39
2.2781177 -0.085901134 0.6560322 9.6812376e-39
2.3554945 -0.040678173 0.64922786 9.7734332e-39
2.4027894 -0.0065070651 0.61989427 9.8656302e-39
2.395436 0.0049292552 0.68615365 9.7734346e-39
2.4367762 0.049953733 0.64899921 9.9578245e-39
2.4849548 0.11617529 0.64765811 9.7738004e-39
2.5340385 0.16759555 0.65040809 1.1067448e-38
2.5559576 0.24931811 0.64821154 1.0602852e-38
2.576334 0.33344707 0.64894903 1.0783628e-38
2.6239798 0.38224313 0.64610875 9.587977e-39
2.6925313 0.40364984 0.64687741 1.6506256e-38
2.756808 0.41979352 0.6472705 2.0747975e-38
2.8610208 0.44445553 0.64863288 2.1579537e-38
2.9603667 0.47346887 0.65819514 2.1395508e-38
3.0151784 0.4922826 0.63847846 2.084306e-38
3.0511911 0.5226869 0.64920765 2.0659031e-38
3.142926 0.56446254 0.6490081 1.9829279e-38
3.2426293 0.59136939 0.65278912 1.8446354e-38
3.2795758 0.60227978 0.61746204 1.8261604e-38
3.3580236 0.62096906 0.65121174 1.6878671e-38
3.4416728 0.67212808 0.65013278 1.0885596e-38
3.2670207 0.77499783 0.65484184 1.7983952e-38
3.3342464 0.73231697 0.64662564 1.7892475e-38
3.423604 0.71119988 0.65111154 1.3467441e-38
3.1512425 0.8504414 0.64872575 1.715347e-38
3.2126238 0.8055945 0.65005881 1.7706646e-38
3.095124 0.94707888 0.60991424 1.6138226e-38
3.1219044 0.94722629 0.65667766 1.6322617e-38
2.9647157 1.0800624 0.65150177 1.4201023e-38
3.0692303 1.0433285 0.64938879 4.7059582e-39
3.1100926 1.0105141 0.64666706 1.1711743e-38
2.9244809 1.1423534 0.64910531 1.1340776e-38
2.9761631 1.2537339 0.65017617 8.9436725e-39
2.9856384 1.3457421 0.64861107 8.4826958e-39
3.0028872 1.3932593 0.68748111 7.837325e-39
2.9980917 1.4221961 0.61762625 7.8373278e-39
3.0086744 1.4531419 0.65714341 7.6529365e-39
3.0570509 1.5413134 0.64914465 6.8231773e-39
3.1069946 1.592893 0.66525006 5.993418e-39
2.3749495 1.6932542 0.60788047 8.3897729e-39
2.4210744 1.6961625 0.6067459 9.9542133e-39
2.7666633 1.6988381 0.6234979 9.2134253e-39
2.8186405 1.6904391 0.65832835 9.0275795e-39
3.153125 1.6487632 0.64829123 5.5317224e-39
3.2028816 1.6971577 0.6931234 4.7934385e-39
2.1761692 1.7829912 0.61192882 9.6772649e-39
2.2439649 1.7881941 0.617616 9.4003207e-39
2.3717246 1.7458079 0.61934745 7.0064909e-39
2.4469543 1.7349858 0.63807327 5.1654622e-39
2.5512578 1.7472582 0.64336783 7.7454965e-39
2.6575296 1.749559 0.65170395 7.929536e-39
2.7521961 1.7204664 0.65485978 7.0968999e-39
2.8444932 1.7106087 0.62936467 6.8170578e-39
2.9478998 1.7456297 0.63264304 4.3292149e-39
3.0571146 1.7757663 0.64914674 4.0533483e-39
3.1506696 1.7696401 0.64924115 3.5012591e-39
3.2185199 1.745114 0.65436029 4.0555147e-39
2.151077 1.8521179 0.62092239 7.7441232e-39
2.2490141 1.8524133 0.64257985 3.412393e-39
2.3494618 1.832163 0.64257419 5.7139921e-39
2.4340622 1.8403411 0.67658913 6.8217311e-39
2.5352018 1.8190181 0.6943984 7.5640031e-39
2.6067927 1.8024974 0.69700241 6.6416825e-39
2.1520479 1.9222076 0.64778417 8.2958228e-39
2.2312458 1.93672 0.67938358 1.3818737e-39
7.547893 -2.5012577 0.79494935 1.2918122e-39
7.6507635 -2.5298285 0.79474628 1.3840092e-39
7.7765694 -2.5257337 0.76134884 9.7748822e-39
7.8243241 -2.555764 0.77838361 3.6892517e-39
7.3289919 -2.4234314 0.79304099 1.3840092e-39
7.4539046 -2.4647343 0.7958039 1.2918136e-39
7.5483642 -2.4905238 0.794999 1.3840092e-39
7.7402229 -2.4531248 0.75715977 1.9179198e-38
6.3723722 -2.3139462 0.75694948 5.5424998e-40
6.4578481 -2.3434494 0.77952594 5.5424998e-40
6.5545154 -2.3186617 0.7801851 6.4644561e-40
6.8772278 -2.3087735 0.78880322 1.1074238e-39
7.0794339 -2.3460124 0.79667711 1.3840106e-39
7.1474543 -2.35567 0.79658139 1.4762063e-39
7.234529 -2.3921964 0.79325658 1.3840106e-39
7.5932584 -2.3081553 0.73400021 2.0930558e-38
7.6642842 -2.3488855 0.76635039 2.2589363e-38
7.7054992 -2.3934112 0.780424 2.3142178e-38
6.1555271 -2.2241139 0.72602308 6.4644561e-40
6.2642021 -2.2456977 0.73929989 5.5424998e-40
6.3400621 -2.2564921 0.7592054 6.4644561e-40
6.4332833 -2.2895801 0.77030998 6.4644561e-40
6.5619302 -2.2313604 0.76370573 1.1074238e-39
6.631938 -2.2598767 0.77261204 1.0152281e-39
6.7095098 -2.2621481 0.7840867 1.0152281e-39
7.4716344 -2.211904 0.77074492 2.0378107e-38
7.5597568 -2.2611027 0.76848483 2.1852518e-38
7.6148782 -2.289099 0.78735781 2.2958507e-38
5.9835739 -2.1468792 0.70788467 6.4644561e-40
6.042376 -2.1562798 0.70902985 6.4644561e-40
6.1592474 -2.1831841 0.72417319 6.4644561e-40
6.3743229 -2.1767261 0.7357201 1.1996194e-39
6.4291134 -2.186161 0.74204397 1.1996194e-39
7.3878794 -2.1498015 0.77809662 1.1250021e-38
7.4313293 -2.1777763 0.77960539 1.6044193e-38
1.5795765 -1.4030617 0.78707492 1.1989416e-38
1.5643636 -1.3450307 0.75384319 1.1343683e-38
1.5649642 -1.2426813 0.74654716 8.5752656e-39
1.5848433 -1.1820432 0.76277047 1.0787233e-38
1.6205434 -1.1371714 0.7484799 1.0695036e-38
1.6556796 -1.0534954 0.75195873 1.0418807e-38
1.6817988 -0.97259432 0.74548823 1.0234055e-38
1.7208703 -0.92649168 0.75461459 1.0234053e-38
1.765587 -0.8576023 0.74803787 1.0141857e-38
1.8067847 -0.80831325 0.75405484 1.005002e-38
1.8490776 -0.74940711 0.74990994 9.4046521e-39
1.9028559 -0.70126516 0.77003318 9.9581818e-39
1.8973531 -0.69730783 0.71094936 1.0234769e-38
1.9393806 -0.65294093 0.75146258 1.0142216e-38
1.9627876 -0.54748899 0.74987423 9.0358696e-39
2.0013053 -0.50309318 0.79268354 9.4972037e-39
1.995415 -0.49177077 0.72467434 1.0142217e-38
2.0125 -0.44579798 0.75271773 9.3124565e-39
2.0704198 -0.3724401 0.74857461 9.7734318e-39
2.1083214 -0.3213177 0.75151819 1.0510998e-38
2.1299748 -0.25032285 0.75058478 1.0327329e-38
2.1811213 -0.17663118 0.7497617 9.3131739e-39
2.2334688 -0.12653324 0.75082964 9.4046521e-39
2.2822373 -0.085207544 0.75126803 9.4968463e-39
2.3474417 -0.037132822 0.75072676 9.589042e-39
2.3958654 0.0040214425 0.73613828 9.681239e-39
2.4383066 0.052466672 0.75058931 9.7730745e-39
2.4815252 0.11212107 0.7480731 9.4972121e-39
2.5540462 0.16261005 0.75167048 1.1988686e-38
2.5726464 0.2503635 0.74912387 1.0600686e-38
2.5833871 0.32893318 0.74696219 1.1150606e-38
2.6336412 0.37409037 0.75182271 1.1614839e-38
2.7150393 0.39382133 0.78194207 1.3275456e-38
2.7499928 0.41133377 0.74590439 2.1943282e-38
2.85268 0.43743348 0.75112033 2.2774481e-38
2.9636352 0.47014856 0.75056648 2.2591168e-38
3.0162494 0.49308091 0.75417924 2.2407137e-38
3.0598023 0.52595854 0.74647141 2.1671374e-38
3.1361623 0.57338023 0.75734448 2.0750505e-38
3.2415154 0.59216923 0.72130466 1.7616233e-38
3.1847088 0.60783631 0.77047473 2.0382087e-38
3.2493405 0.63588452 0.77605081 1.9276109e-38
3.3518476 0.66257334 0.76942354 1.5587577e-38
3.4336815 0.67117971 0.74361348 1.1807911e-38
3.2742794 0.77173907 0.74772429 1.8537483e-38
3.3282297 0.72003078 0.75202751 1.8630393e-38
3.422971 0.70551383 0.725788 1.5404265e-38
3.1703308 0.85875016 0.74744201 1.7338221e-38
3.220866 0.81119066 0.75643235 1.7983952e-38
3.0960295 0.99312752 0.73064929 1.1803941e-38
3.1328821 0.94887859 0.75025636 1.6138228e-38
2.9584436 1.0727332 0.75113684 1.3740044e-38
3.0545824 1.034016 0.75065827 3.4159425e-39
3.1076887 1.0099225 0.74843287 8.7614827e-39
2.928004 1.1450529 0.75058132 1.097199e-38
2.9767957 1.251826 0.75034165 8.57489e-39
2.9889009 1.334204 0.75032681 8.2061089e-39
3.0083382 1.3874938 0.75198346 7.8373264e-39
3.0192473 1.4470803 0.75132543 7.3763482e-39
3.0647383 1.5375699 0.75210822 6.4540346e-39
3.1106749 1.5903229 0.74830371 5.8086666e-39
2.7734969 1.6791892 0.76513386 5.8947428e-39
2.8187339 1.6761388 0.74152082 8.8439099e-39
3.1581273 1.6460477 0.75361627 5.0707428e-39
3.2037327 1.6949339 0.7397663 4.6090458e-39
2.670248 1.7947062 0.71273065 6.1807043e-39
2.7716587 1.7474451 0.74154663 3.9651366e-39
2.8270478 1.7694436 0.77369392 6.3643823e-39
2.9521246 1.7369046 0.74264288 4.8812999e-39
3.0674391 1.783797 0.74828207 4.0526224e-39
3.1464627 1.7683941 0.75375539 3.4090593e-39
3.219584 1.7384301 0.74569499 3.9633177e-39
2.2814312 1.8853033 0.71641767 4.3349813e-39
2.3518012 1.8883473 0.72639555 3.3193902e-39
2.4645939 1.8785754 0.74164939 6.2689063e-39
2.5527 1.852468 0.7499575 7.9327786e-39
2.645942 1.8214794 0.75513339 6.6413209e-39
2.7452474 1.8180735 0.76777166 6.7353215e-39
2.8111098 1.8234897 0.78000283 9.31969e-39
2.260252 1.9668363 0.74009985 2.6740264e-39
2.3533118 1.9419564 0.77749223 2.3045208e-39
2.449235 1.9137728 0.76754814 4.240622e-39
2.2496605 2.0100241 0.78183937 2.3048823e-39
6.8724451 -2.5054605 0.86261535 6.4644561e-40
7.0672622 -2.544142 0.89045233 6.4644561e-40
7.1334004 -2.5234303 0.87482297 6.4644561e-40
7.2489376 -2.5486374 0.87853903 6.4644561e-40
7.3481092 -2.5537648 0.88627923 7.3864124e-40
7.6561589 -2.5039711 0.81004602 1.4762049e-39
7.7518497 -2.5166054 0.81394416 1.9371816e-39
7.8196797 -2.5292788 0.80476451 3.1360821e-39
6.6984062 -2.4420118 0.83110678 5.5424998e-40
6.7579527 -2.4324756 0.85021591 1.1074238e-39
6.860394 -2.4417415 0.84749377 9.230325e-40
6.9488745 -2.4752219 0.87616789 1.2918136e-39
7.0420227 -2.4235723 0.87084991 2.4903568e-39
7.1468091 -2.4346137 0.87792927 1.7527932e-39
7.2342968 -2.4756117 0.88193917 1.1996194e-39
7.3386378 -2.4388411 0.83632725 1.384012e-39
7.4445481 -2.4276297 0.81627989 1.660236e-39
7.5462976 -2.4408338 0.83287948 1.7524316e-39
7.6539979 -2.4472289 0.85662848 1.4754846e-39
7.7332716 -2.4417784 0.83966422 1.5120792e-38
6.3364658 -2.3008935 0.88675421 3.0446082e-39
6.4333849 -2.3286643 0.892883 3.2290008e-39
6.5735035 -2.3395588 0.872504 3.2290022e-39
6.6400051 -2.3529165 0.86440957 3.0442508e-39
6.7394295 -2.3403113 0.86635995 4.0580412e-39
6.851306 -2.3331807 0.86699975 2.7676626e-39
6.9505572 -2.3391354 0.86314428 1.6609563e-39
7.036551 -2.3467271 0.83751154 1.2918136e-39
7.1354957 -2.3356857 0.82556581 1.475486e-39
7.2689424 -2.3406298 0.83637059 1.7520729e-39
7.371151 -2.3549242 0.85611176 1.8442685e-39
7.4403052 -2.3732562 0.86307395 2.0286584e-39
7.5348806 -2.3827829 0.88600063 2.1204967e-39
7.6811538 -2.3325694 0.84543157 2.3234013e-38
7.709837 -2.382093 0.85437834 2.3141818e-38
6.0594821 -2.217804 0.88820094 2.8591393e-39
6.1518636 -2.2442131 0.89049762 2.9516951e-39
6.2445188 -2.2649465 0.89123434 3.1360863e-39
6.3375468 -2.282999 0.89604831 3.4130334e-39
6.572885 -2.2668931 0.88867515 5.3498591e-39
6.6279964 -2.2776446 0.88135147 5.1647475e-39
6.7644453 -2.2343972 0.87470579 1.3840092e-39
6.850431 -2.2520299 0.85472047 1.1074224e-39
6.9430437 -2.2643003 0.82961833 1.3836505e-39
7.0251207 -2.2643116 0.82675964 1.6598773e-39
7.1200647 -2.2523451 0.86289215 1.9364628e-39
7.2799168 -2.2863965 0.88751829 1.843907e-39
7.56564 -2.2280562 0.84945613 2.3050342e-38
7.6243587 -2.2750621 0.85607505 2.3142179e-38
5.7665863 -2.110584 0.87634844 2.6747495e-39
5.840817 -2.1335795 0.88198406 2.6747495e-39
5.9478159 -2.1732709 0.88628769 2.7673024e-39
6.0418034 -2.1939204 0.89781541 3.0438893e-39
6.599236 -2.1012027 0.88544554 1.291815e-39
6.6530457 -2.1369665 0.87343419 1.2918136e-39
6.7384334 -2.1612806 0.8562904 1.3836491e-39
6.8388238 -2.167542 0.85075688 1.7517114e-39
6.9491158 -2.1775336 0.87219822 1.8442671e-39
7.0158358 -2.1832411 0.89073497 2.0282969e-39
7.3931427 -2.1193409 0.84795457 1.6873955e-38
7.4496017 -2.1419384 0.85411251 1.9916411e-38
7.5228858 -2.1863766 0.86284161 2.2958148e-38
5.5827417 -2.0352783 0.89804649 2.3059669e-39
5.6510592 -2.0700524 0.88434833 2.3981626e-39
5.7245049 -2.084193 0.88645595 2.6747495e-39
6.5807705 -2.0612671 0.88296491 1.475486e-39
6.633729 -2.0807099 0.87023169 1.5680404e-39
6.7613363 -2.0894222 0.89255387 1.9360998e-39
7.3509898 -2.0689542 0.86715156 1.3925493e-38
6.2888746 -1.7075193 0.88916552 2.3234374e-38
6.3568039 -1.7195089 0.8859027 2.2958148e-38
6.439589 -1.7391269 0.89186668 2.2405335e-38
6.5123911 -1.7588214 0.89258355 2.2774117e-38
6.0552936 -1.6120478 0.88376957 2.3049982e-38
6.1498723 -1.6453853 0.8861255 2.3142178e-38
6.2426653 -1.6784492 0.88560969 2.3049984e-38
6.321022 -1.688884 0.88459289 2.2773757e-38
5.7621379 -1.5176013 0.87642926 2.2220583e-38
5.8495874 -1.5465305 0.87579226 2.2589366e-38
5.9381146 -1.5771525 0.88237631 2.3142178e-38
6.0044775 -1.5869868 0.87060964 2.3049981e-38
1.589711 -1.4076653 0.84073269 1.1989053e-38
5.4904761 -1.4075737 0.86341834 1.5861956e-38
5.54672 -1.4344234 0.87183744 1.6414771e-38
5.6458783 -1.475624 0.86903548 1.9270682e-38
5.7025943 -1.4948614 0.85563564 2.0929846e-38
1.5856069 -1.3510125 0.83372885 1.0606113e-38
1.6007524 -1.376527 0.87231308 1.1712463e-38
5.2252669 -1.3245064 0.85943997 1.5401692e-38
5.3150783 -1.3472718 0.89717376 1.5584286e-38
5.4335546 -1.3851422 0.87800437 1.5770475e-38
1.5656127 -1.2535061 0.82722253 7.2838051e-39
1.5729511 -1.1598256 0.82967633 1.0418451e-38
1.6102043 -1.1151688 0.83274168 1.0326255e-38
1.6483276 -1.0506903 0.84716648 1.0049667e-38
1.6807818 -0.9772191 0.85598922 9.7730773e-39
1.7333406 -0.93304187 0.85136712 9.1269876e-39
1.8014185 -0.90200132 0.89498687 7.0958069e-39
1.7770896 -0.86342299 0.83733624 8.9415145e-39
1.8164855 -0.83527249 0.86613202 7.6496967e-39
1.8573407 -0.74957168 0.84903038 8.3897799e-39
1.9010462 -0.70143688 0.83862436 9.5890405e-39
1.9363954 -0.6524505 0.85004801 9.7734318e-39
1.9676735 -0.55563623 0.84874463 8.8514769e-39
2.0059481 -0.50912261 0.85638297 9.3128138e-39
2.0301948 -0.45047146 0.85123253 9.0358682e-39
2.0826507 -0.37070325 0.84268528 9.7737905e-39
2.1067188 -0.32342839 0.85627955 1.0234769e-38
2.1282408 -0.25141236 0.84872085 1.0326966e-38
2.206965 -0.20711851 0.88626337 8.5763292e-39
2.1884491 -0.17967989 0.82287937 9.3128138e-39
2.2381821 -0.14134149 0.84779865 8.6670885e-39
2.3076339 -0.11243498 0.89412689 5.9927005e-39
2.2840769 -0.085834712 0.83265924 9.1280666e-39
2.3477006 -0.041316662 0.84896183 8.8514797e-39
2.4055717 -0.0048154402 0.88444006 8.9433138e-39
2.4474325 0.049319711 0.84883153 9.3124551e-39
2.4872673 0.11012124 0.84823567 9.4039318e-39
2.5484042 0.1610022 0.84915876 9.4961373e-39
2.6004083 0.19994177 0.81034303 1.3187953e-38
2.5892565 0.24592163 0.8467924 1.0045701e-38
2.6027329 0.269548 0.87199742 1.1336806e-38
2.594862 0.31861514 0.82672411 1.1241719e-38
2.6119013 0.33694381 0.86172473 1.1058057e-38
2.7533784 0.39522147 0.81272662 1.0786173e-38
2.7858846 0.40510845 0.80785728 1.2721931e-38
2.8622546 0.43046319 0.82317603 1.6872176e-38
2.9609728 0.46318072 0.83898109 2.0469239e-38
3.0197756 0.487223 0.86034787 1.9732757e-38
3.0691237 0.51882869 0.84578472 2.259081e-38
3.145808 0.57013959 0.85043347 2.1855406e-38
3.1959393 0.60444176 0.84562236 2.1303674e-38
3.253258 0.63779706 0.84996873 2.0843059e-38
3.3114219 0.68565482 0.85626572 2.0197698e-38
3.2775204 0.76709723 0.85369653 1.909101e-38
3.3096125 0.71876562 0.83961326 1.9828205e-38
3.1850774 0.86735517 0.82820755 1.7430775e-38
3.2210219 0.83542109 0.86055726 1.7984311e-38
3.0608702 0.9843992 0.8614952 7.8395194e-39
3.1575129 0.95257682 0.8466472 1.6138229e-38
3.2030082 0.91398609 0.88399303 1.7153111e-38
2.9606967 1.0641448 0.85127687 1.318687e-38
3.0342617 1.0194079 0.84511739 3.0464383e-39
2.9306161 1.1453099 0.85055918 1.0511368e-38
2.9688642 1.2518343 0.85019886 8.2061089e-39
2.9822142 1.3352275 0.85041159 7.9295206e-39
3.0054703 1.3887702 0.84984422 7.4685425e-39
3.0145977 1.4470977 0.85020107 7.1919556e-39
3.0664701 1.5389532 0.84911114 6.085608e-39
3.1097243 1.590097 0.85559905 5.3476856e-39
2.7761188 1.663452 0.84951812 7.4624258e-39
2.8299022 1.6584741 0.84183824 7.7397231e-39
2.9137039 1.6963029 0.88695669 5.1589658e-39
3.1553271 1.6497893 0.84995949 4.5172075e-39
2.7761765 1.7315756 0.83008367 2.8613169e-39
2.8143594 1.7704036 0.86665499 8.3941393e-39
2.9594958 1.7283497 0.84567946 4.6061521e-39
3.0688639 1.7794951 0.85078543 3.9611457e-39
3.1518238 1.7482232 0.85108709 3.5016136e-39
3.2034538 1.7235963 0.80846065 3.6870895e-39
2.4809575 1.8868933 0.86372417 5.4373533e-39
2.5427535 1.8677737 0.84917367 6.5462302e-39
2.6482232 1.8715032 0.84938669 5.2573061e-39
2.7502406 1.8758754 0.85414881 4.7956049e-39
2.8297517 1.8530391 0.85788524 7.1959507e-39
2.2925894 1.993959 0.86080945 1.2892927e-39
2.3544767 1.9654399 0.85198104 1.7506282e-39
2.4378178 1.9153863 0.84468424 2.3959948e-39
2.7793641 1.9015871 0.86639106 4.6108521e-39
2.8155122 1.9015892 0.87543172 4.0573168e-39
2.2766085 2.0199039 0.85134465 9.2123043e-40
7.1816278 -2.6147177 0.9255867 7.3864124e-40
7.208384 -2.6071339 0.92558032 7.3864124e-40
7.4570332 -2.6091745 0.91446382 7.3864124e-40
7.5114536 -2.6246374 0.92114937 6.4644561e-40
6.8925838 -2.5128024 0.92480516 1.9371844e-39
6.9741707 -2.5324984 0.92569059 1.4765664e-39
7.0667424 -2.5427842 0.92632204 1.199618e-39
7.1588416 -2.5513194 0.91990381 7.3864124e-40
7.2481151 -2.5562694 0.91858304 8.3083687e-40
7.3469458 -2.5591273 0.91683638 7.3864124e-40
7.4311337 -2.569783 0.91664064 7.3864124e-40
6.6885285 -2.4142928 0.90707552 3.4126732e-39
6.7500024 -2.4354687 0.90955412 3.1364479e-39
6.8536677 -2.4689655 0.91464007 2.6751096e-39
6.9362288 -2.4586477 0.9106403 2.2144888e-39
7.0412254 -2.4755018 0.91425228 1.5687592e-39
7.1419363 -2.480042 0.91085052 1.4765636e-39
7.2405729 -2.4829819 0.90882206 2.6747495e-39
7.3198566 -2.4996102 0.9082135 1.7527932e-39
7.6815667 -2.4014902 0.91984707 7.3792237e-40
7.7794089 -2.4264617 0.91472632 8.7585792e-39
6.4691443 -2.3070641 0.90532172 3.7825334e-39
6.559402 -2.3411376 0.90337741 3.6903391e-39
6.6591706 -2.3844833 0.90309417 3.5977834e-39
6.8445969 -2.3142712 0.90189534 1.2003354e-39
7.4906559 -2.3364079 0.91319025 1.0145051e-39
7.5424514 -2.3253202 0.9394899 2.1201323e-39
7.6688404 -2.3343346 0.9473446 1.6318977e-38
7.7282467 -2.3603537 0.93053538 2.1942913e-38
6.1408343 -2.2091558 0.90069818 3.5048675e-39
6.2507043 -2.2201729 0.91081476 3.8740101e-39
6.3503146 -2.2443018 0.91866583 4.0587615e-39
6.4534793 -2.2451928 0.93486398 4.4271853e-39
6.5469942 -2.2531476 0.93061 4.1509585e-39
