# .PCD v0.7 - Point Cloud Data file format
VERSION 0.7
FIELDS x y z rgb
SIZE 4 4 4 4
TYPE F F F F
COUNT 1 1 1 1
WIDTH 1045
HEIGHT 1
VIEWPOINT 0 0 0 1 0 0 0
POINTS 1045
DATA ascii
5.3511786 -2.4434054 0.67418933 2.1297195e-38
5.4448681 -2.4374239 0.64918542 2.3234019e-38
5.5200567 -2.4869692 0.6417892 2.3234019e-38
5.6673021 -2.4135871 0.61323124 1.936216e-38
5.7498121 -2.4257782 0.61645865 1.6411898e-38
5.8359394 -2.4643486 0.60900229 1.5398465e-38
2.7741747 -2.3659515 0.62483031 3.5027067e-39
2.8239017 -2.3871508 0.66274148 3.4108712e-39
3.0797706 -2.3046362 0.69092226 7.1916095e-39
3.3976257 -2.3023121 0.68625069 1.0694687e-38
3.4513671 -2.3309081 0.64953917 9.6812544e-39
3.5568645 -2.38463 0.65692383 7.9298962e-39
3.6169443 -2.3962369 0.6726948 7.8376991e-39
3.7665079 -2.3570786 0.66019326 8.2061201e-39
3.8207335 -2.3251066 0.63333076 8.9436838e-39
3.9554617 -2.3305502 0.60460562 7.2845254e-39
4.0534806 -2.3416212 0.60991281 6.8235472e-39
4.150424 -2.3520939 0.61073393 7.929899e-39
4.2488165 -2.3497946 0.6101107 8.8518539e-39
4.3336906 -2.3398995 0.60752982 8.9440495e-39
4.5839486 -2.3060088 0.60182029 1.5951636e-38
4.9710135 -2.3142207 0.63425076 1.5858733e-38
5.0503025 -2.3466613 0.64233774 1.6503383e-38
5.1614366 -2.3786871 0.67581081 1.8531685e-38
5.2616572 -2.3152866 0.65191615 2.3326215e-38
5.3433075 -2.3668377 0.64910007 2.3325854e-38
5.4594626 -2.3250597 0.61569047 2.2680484e-38
5.5611176 -2.3445141 0.63572264 1.9269607e-38
5.6503787 -2.3425951 0.63580692 1.5305911e-38
5.7188048 -2.3798325 0.62084919 1.5305909e-38
2.9796238 -2.2253964 0.66631186 6.54624e-39
3.0252755 -2.2616808 0.67648619 6.6384357e-39
3.2590394 -2.2178059 0.648938 8.9433306e-39
3.3589885 -2.2788136 0.64318043 1.1340776e-38
3.7889271 -2.2996264 0.66689318 8.4834231e-39
3.8607962 -2.2591851 0.65632951 1.0234781e-38
3.9456301 -2.2461517 0.64231533 1.2724784e-38
4.0351329 -2.2348123 0.64632612 1.558285e-38
4.1577487 -2.2392094 0.62062758 8.2986829e-39
4.2541695 -2.2278605 0.63726217 1.0696127e-38
4.3385634 -2.2362142 0.61692607 1.0142593e-38
4.4485555 -2.2250202 0.63092124 1.2263452e-38
4.5351944 -2.2379022 0.60630476 1.2355289e-38
4.6495695 -2.2155418 0.60905874 1.3462358e-38
4.7483797 -2.2218344 0.61950743 1.4845296e-38
4.847753 -2.246192 0.64465445 1.5766895e-38
4.9251451 -2.27156 0.65997308 1.6320068e-38
5.0907884 -2.2011106 0.65367401 2.3509886e-38
5.1551366 -2.2344525 0.64259022 2.341769e-38
5.2254276 -2.2648914 0.63133067 2.3325854e-38
5.3497357 -2.2474136 0.64016497 2.175853e-38
5.4594898 -2.2330194 0.67110008 1.6135313e-38
5.5446429 -2.2531426 0.64727694 1.383114e-38
5.6069999 -2.2935345 0.6336717 1.4107726e-38
2.865274 -2.1352475 0.65622938 5.5320895e-39
2.9143453 -2.1749623 0.66009408 5.9930663e-39
3.0848379 -2.1093912 0.64355803 7.2838093e-39
3.1471097 -2.1477253 0.657974 7.560036e-39
4.036005 -2.1688511 0.65607023 2.1206787e-38
4.147635 -2.1848812 0.66754323 1.2816985e-38
4.2655478 -2.1886692 0.67771846 1.2632233e-38
4.3492837 -2.1792073 0.67634201 1.290918e-38
4.4572186 -2.1589684 0.66611284 1.2816627e-38
4.5426865 -2.1518331 0.64333177 1.3554194e-38
4.6387787 -2.1616528 0.6406731 1.4660544e-38
4.7394843 -2.1740837 0.67011529 1.585873e-38
4.8295236 -2.199625 0.68980044 1.6319708e-38
4.9756756 -2.1180284 0.66670299 2.341769e-38
5.0488753 -2.1565104 0.64880472 2.341769e-38
5.1488285 -2.1564102 0.64430642 2.2957072e-38
5.2500629 -2.1604712 0.67551452 2.0744017e-38
5.3625345 -2.1322615 0.66229558 1.4291756e-38
5.446187 -2.1718841 0.64346433 1.3277964e-38
2.7578943 -2.0247133 0.65642577 3.595624e-39
2.8591669 -2.0242081 0.65345418 7.283452e-39
2.9525537 -2.0437481 0.65374637 7.3756476e-39
3.0285168 -2.0777705 0.65243071 7.3756476e-39
4.3805513 -2.0216806 0.69391328 1.4199565e-38
4.4475756 -2.0614052 0.68519819 1.4384315e-38
4.5368528 -2.077502 0.67947423 1.5214438e-38
4.624505 -2.0995567 0.69054997 1.6596295e-38
4.8625498 -2.0338435 0.67993134 2.341769e-38
4.9407248 -2.0639701 0.66737276 2.3325853e-38
5.0374947 -2.0695481 0.67590457 2.3048907e-38
5.1714511 -2.0250602 0.67578697 1.5489942e-38
5.2488976 -2.0460486 0.6518212 1.3277963e-38
5.3217015 -2.0886838 0.64126629 1.3185409e-38
2.7365024 -1.9830822 0.63056588 3.8718535e-39
4.3487287 -1.9821947 0.69717276 1.4476152e-38
4.6758699 -1.9147414 0.69675511 2.341769e-38
4.7544103 -1.9512944 0.69148368 2.3325854e-38
4.8346066 -1.9806277 0.6847055 2.3325854e-38
4.9943199 -1.9090189 0.68811345 1.466054e-38
5.0560217 -1.9321364 0.65847868 1.3369443e-38
5.1391373 -1.976244 0.64412099 1.2724072e-38
4.6574087 -1.8961434 0.69881272 2.341769e-38
4.7927294 -1.802581 0.69145948 1.4014812e-38
4.8597159 -1.8240021 0.66251117 1.3092856e-38
4.9489641 -1.8676088 0.65292215 1.2908464e-38
5.0056424 -1.8927711 0.6326406 1.2263094e-38
4.6633573 -1.7202811 0.66403276 1.300102e-38
4.7501087 -1.7609538 0.64981169 1.2724432e-38
4.8199825 -1.7932328 0.63276476 1.2355291e-38
4.4680028 -1.6177691 0.65655702 1.2724073e-38
4.5474691 -1.6568141 0.65193427 1.2631877e-38
4.6232638 -1.6885605 0.63464773 1.2447486e-38
4.2701836 -1.5158255 0.65986526 1.2632239e-38
4.3503504 -1.5538701 0.64657485 1.2631879e-38
4.4220572 -1.5881996 0.63983303 1.2539682e-38
2.3977346 -1.4033784 0.69875777 9.1280834e-39
2.4450171 -1.4154586 0.69597304 6.3614971e-39
2.5134077 -1.404 0.69983369 4.9785598e-39
4.0784597 -1.4124182 0.65830708 1.2355652e-38
4.1498647 -1.4472851 0.64646965 1.2355652e-38
4.2241125 -1.4851198 0.63938224 1.2447488e-38
2.3543518 -1.3371252 0.68515211 9.7730927e-39
2.449955 -1.3543112 0.68700892 6.5458883e-39
2.5432076 -1.3388146 0.69441074 5.5320979e-39
2.6192756 -1.324719 0.69718397 6.2700231e-39
3.876646 -1.3105327 0.65036947 1.2171261e-38
3.9511738 -1.3453332 0.6491074 1.2263098e-38
4.032588 -1.3853363 0.64818025 1.2263457e-38
2.3493302 -1.2604877 0.68150789 1.0971636e-38
2.4430666 -1.2332058 0.68049282 1.1064553e-38
2.5467577 -1.2532905 0.68741322 7.4685663e-39
2.6233587 -1.270516 0.69658345 6.4544144e-39
3.6680448 -1.2130413 0.65563804 1.2539683e-38
3.7502501 -1.2487364 0.64494187 1.2170901e-38
3.8290849 -1.2860516 0.64154732 1.2079064e-38
3.4621465 -1.1161062 0.65613818 1.281663e-38
3.5464332 -1.1540806 0.64579839 1.2632238e-38
3.6261683 -1.1878452 0.63170373 1.2263096e-38
3.1755645 -1.0120844 0.68944973 1.7888112e-38
3.2655456 -1.0216553 0.66098982 1.3554557e-38
3.3495712 -1.0523734 0.64782172 1.2263458e-38
3.4222801 -1.0875241 0.63607264 1.2540042e-38
2.7815461 -0.90871441 0.67218345 7.1923465e-39
2.8403373 -0.92226809 0.68427855 1.3462365e-38
2.9532354 -0.92826825 0.65103787 1.5121884e-38
3.0606844 -0.94683456 0.65336043 1.3923341e-38
3.1457658 -0.95226532 0.63690388 1.2909189e-38
3.2401061 -0.98235351 0.62991309 1.2263458e-38
2.5926878 -0.81055266 0.61343765 7.7455217e-39
2.6671333 -0.84421504 0.63311714 7.9295528e-39
2.7429664 -0.84975505 0.65899724 1.4015179e-38
2.849026 -0.88071847 0.62687331 1.5583221e-38
2.9607227 -0.85855407 0.60683268 1.0051487e-38
3.0409248 -0.88023144 0.60863686 1.1711004e-38
2.4990327 -0.71998358 0.6056996 1.9824943e-38
2.5629885 -0.7220583 0.63985974 1.9362527e-38
2.6431096 -0.7550025 0.66986853 1.9546557e-38
2.7142699 -0.79267573 0.68706983 2.0007895e-38
2.3935578 -0.6049931 0.60258245 1.7886672e-38
2.435328 -0.64519984 0.61302286 1.8532045e-38
2.5239103 -0.69315118 0.6381793 1.8901187e-38
2.3849251 -0.59421784 0.60212737 1.7242023e-38
2.4460993 -0.54945064 0.6055755 1.6135313e-38
4.0648999 -0.51042199 0.6646207 4.7970524e-39
4.1432233 -0.51990944 0.64846033 4.0587671e-39
4.2538881 -0.53562194 0.62242812 1.0697211e-38
4.3027015 -0.51681715 0.60765624 1.152661e-38
2.4608967 -0.49041778 0.60254031 1.6227867e-38
3.3768597 -0.41570279 0.62506318 1.0052558e-38
3.4524112 -0.40942743 0.64064687 1.0328785e-38
3.5598402 -0.41049159 0.65338677 1.0605371e-38
3.6461885 -0.41369736 0.65222573 1.0789763e-38
3.7521243 -0.42787886 0.64388865 1.088196e-38
3.8560209 -0.42395952 0.65982342 1.0974155e-38
3.94504 -0.42520532 0.66171861 1.1250382e-38
4.0535002 -0.44515219 0.65444714 1.1065991e-38
4.1543646 -0.45950636 0.6526491 7.8391453e-39
4.2514315 -0.46016616 0.64030057 7.009386e-39
4.3439827 -0.44723177 0.62983328 7.6543953e-39
4.4496818 -0.42542976 0.62732035 6.0870696e-39
4.5137305 -0.41517791 0.60851055 8.3916002e-39
2.5727015 -0.37376571 0.60314167 1.4016255e-38
2.6647539 -0.3629491 0.6118508 1.3831144e-38
2.7500291 -0.33583087 0.61829352 1.3093577e-38
2.8464823 -0.31279305 0.63151187 1.2540045e-38
2.935492 -0.3091588 0.66118371 1.2355652e-38
3.023479 -0.30693325 0.68968374 1.2356014e-38
3.6689973 -0.39805144 0.69075453 1.0697566e-38
3.7284942 -0.3975178 0.68959779 1.0789404e-38
3.979471 -0.39389202 0.68294168 1.1343297e-38
4.0429277 -0.38036579 0.68503994 1.1527688e-38
4.1538286 -0.38019347 0.68328696 1.1712079e-38
4.2491188 -0.35332692 0.68040949 1.2080862e-38
4.3504472 -0.35148126 0.66722727 1.2265613e-38
4.4611082 -0.34295639 0.64240813 5.9948753e-39
4.5153928 -0.37233695 0.61004108 8.0231778e-39
2.8714249 -0.29231748 0.61654192 1.2079067e-38
2.9513547 -0.28725371 0.63397986 1.1064915e-38
3.052352 -0.28497493 0.65331072 1.032735e-38
3.1546135 -0.27537566 0.66561061 1.032771e-38
3.2468793 -0.25825524 0.67441815 9.6819803e-39
3.3423631 -0.23854198 0.6813615 8.8522182e-39
3.4541676 -0.2368346 0.69039565 6.6391643e-39
3.5230637 -0.24299103 0.69663441 6.0863493e-39
4.3648472 -0.23654392 0.65052491 4.6101402e-39
4.4190125 -0.28656191 0.64697826 5.8090435e-39
3.3732083 -0.13238493 0.6849066 9.7752563e-39
3.4494526 -0.15873383 0.68924654 8.3001248e-39
3.5493546 -0.14464353 0.69250089 5.9952327e-39
3.6438792 -0.11585946 0.69391423 6.0881486e-39
3.762162 -0.12332165 0.69794786 3.5063122e-39
3.8125031 -0.1413742 0.69854385 3.1375311e-39
3.9127231 -0.15638 0.69997239 5.4420603e-39
4.0422225 -0.11571669 0.64949137 1.5124759e-38
4.1468673 -0.14457414 0.64566046 1.4754892e-38
4.2427468 -0.17130959 0.65429622 3.6899818e-39
4.3131523 -0.19416806 0.65026528 4.1502425e-39
3.2646961 -0.025961814 0.65703332 8.5767131e-39
3.3314247 -0.066482626 0.66176128 8.3923219e-39
3.4417822 -0.071103878 0.65714163 6.733518e-39
3.5445199 -0.060618658 0.66528261 7.56328e-39
3.6536686 -0.050023012 0.67609435 9.6841397e-39
3.750576 -0.032395314 0.6808235 1.1252553e-38
3.8482771 -0.036302604 0.68464071 1.401842e-38
3.9768035 -0.034913417 0.6514082 1.5584654e-38
4.0115061 -0.081826843 0.64595276 1.5308432e-38
3.1521146 0.055746861 0.63324153 8.3923233e-39
3.2318692 0.026519543 0.64954728 9.2220811e-39
3.3427317 0.040122956 0.61268097 8.6689073e-39
3.452292 0.047831509 0.62631571 1.1435495e-38
3.5642333 0.068048164 0.63035202 1.3280491e-38
3.653537 0.061498616 0.63426626 1.3465965e-38
3.7418633 0.040753268 0.6332401 1.2820589e-38
3.8513844 0.024932988 0.63885069 1.189791e-38
3.9385283 0.0095966682 0.63951594 1.5585375e-38
3.0991716 0.13396597 0.60709041 7.6543981e-39
3.1251924 0.14478301 0.62475997 8.0235393e-39
3.2552345 0.15843239 0.67890191 1.401733e-38
3.3184106 0.15587159 0.6837579 1.3740382e-38
3.4546447 0.10985837 0.60679114 1.6507332e-38
3.5250192 0.10433932 0.6096701 1.5125838e-38
3.1740842 0.24381281 0.61563975 6.8253535e-39
3.2531397 0.24943022 0.65659291 1.438755e-38
3.329165 0.25818545 0.68725747 1.752112e-38
3.1984544 0.31422001 0.60910618 6.5484079e-39
3.2365303 0.35478252 0.62736887 7.7487615e-39
3.3370929 0.35004058 0.67960632 1.5676853e-38
2.9602203 0.49949446 0.69754601 1.8719303e-38
3.1867139 0.45198604 0.61147672 7.1044781e-39
3.2363238 0.4574798 0.65523654 8.4866937e-39
3.3216956 0.42332634 0.68868798 5.7208542e-39
2.7895954 0.59069574 0.64483726 1.1525883e-38
2.8509629 0.57553422 0.65160596 1.4384669e-38
2.9231095 0.53005177 0.65017414 2.0101879e-38
3.0525241 0.50589836 0.64990228 1.0513896e-38
3.1699212 0.51159829 0.64844739 9.8678107e-39
3.2133148 0.50629568 0.67124671 1.0144399e-38
2.7755852 0.64956558 0.64961034 1.1433329e-38
2.372565 0.7914179 0.64050376 1.5674315e-38
2.4446068 0.78393739 0.65054464 1.0970892e-38
2.5461195 0.76928639 0.63148916 1.7053263e-38
2.6550457 0.77623791 0.65630585 1.3921515e-38
2.7570071 0.73399091 0.65629768 1.134113e-38
2.8263102 0.770105 0.68750715 1.0972352e-38
2.1822715 0.89201075 0.61340714 2.1109865e-38
2.2581151 0.86920822 0.63694036 1.806959e-38
2.3323095 0.83079696 0.65893483 1.5397734e-38
2.5800483 0.80382907 0.6819576 1.4382853e-38
2.6279707 0.80460262 0.68211228 1.4566158e-38
2.7835455 0.80031753 0.69875234 1.2078698e-38
2.8287883 0.80338633 0.69173586 1.0603567e-38
1.9930552 0.99428624 0.63142163 1.9265591e-38
2.0547426 0.9633826 0.63872683 1.5302635e-38
2.135854 0.93227494 0.63919336 1.5578853e-38
2.240571 0.923141 0.67818701 1.5305893e-38
1.3580484 1.0809058 0.66478294 1.1433324e-38
1.8753247 1.0904796 0.65595281 1.834327e-38
1.9515808 1.0541121 0.63582605 1.318033e-38
2.0346422 1.0230209 0.64111584 8.3879792e-39
1.3767351 1.1374 0.67242628 1.4014802e-38
1.4360249 1.1687746 0.65692556 1.7238023e-38
1.5191965 1.185443 0.68527794 1.5211895e-38
1.6657758 1.1819553 0.66830909 1.474693e-38
1.7499002 1.1715059 0.64872706 9.5854294e-39
1.8473783 1.1564003 0.65096074 9.0311766e-39
1.9356438 1.1569802 0.63089186 4.882739e-39
1.3971038 1.2117071 0.6766966 1.8898984e-38
1.440841 1.2208573 0.66865718 1.7698628e-38
1.567783 1.2619436 0.67321825 8.7545939e-39
1.6317428 1.2367715 0.64046299 7.8337152e-39
1.7087262 1.2042421 0.61696309 3.224668e-39
1.8637533 1.2065204 0.61162072 3.5923673e-39
1.9129812 1.2060281 0.60432309 3.4076159e-39
1.4978287 1.3014762 0.69256425 4.3299198e-39
1.5686001 1.3354653 0.67181104 3.8685955e-39
1.6202701 1.3520148 0.62881041 3.3157847e-39
1.6481467 1.4306996 0.62625873 2.6707796e-39
3.7808001 -3.011682 0.738599 7.4678292e-39
3.8259213 -3.0281379 0.74252439 7.7444161e-39
3.5839965 -2.9063408 0.71097249 7.0990467e-39
3.6561863 -2.9317172 0.73841745 7.5600234e-39
3.7556009 -2.9533725 0.736812 8.1131986e-39
3.8082585 -2.9887419 0.73331296 8.1131986e-39
3.3779469 -2.8162723 0.72092402 7.0994096e-39
3.4508042 -2.8314509 0.72824252 7.1916038e-39
3.549176 -2.8460395 0.75573885 7.7447762e-39
3.6490991 -2.8500128 0.75343299 8.3901456e-39
3.7261343 -2.8727491 0.72558528 8.5748956e-39
3.2745745 -2.7254415 0.75213081 7.0068567e-39
3.3532541 -2.7588365 0.76668525 7.3756364e-39
3.4511211 -2.7601535 0.77709854 7.744779e-39
3.5456865 -2.7483592 0.76186979 8.390147e-39
3.6252174 -2.7729774 0.72881895 8.4819825e-39
2.9802303 -2.6272168 0.75366312 7.1908864e-39
3.009923 -2.6683323 0.72029144 7.0986922e-39
3.1713889 -2.6341538 0.75280702 6.5455198e-39
3.2350903 -2.6721492 0.77790004 7.099411e-39
3.3970616 -2.630285 0.79885417 8.205397e-39
3.4457572 -2.6507666 0.7742573 8.1135615e-39
3.5217125 -2.6823139 0.73856252 8.2979514e-39
2.9669411 -2.5598135 0.7609545 7.2830834e-39
3.0597501 -2.5376859 0.74007314 5.4398911e-39
3.1300304 -2.574019 0.77642429 6.7306299e-39
3.35305 -2.5428679 0.75933999 7.8369761e-39
3.4131765 -2.5894036 0.73079926 8.0213673e-39
5.4961843 -2.5111928 0.70969009 2.3049985e-38
5.5401912 -2.5247767 0.70553994 2.3142182e-38
2.8824427 -2.4183257 0.75024647 5.5324468e-39
2.9294639 -2.4623094 0.75983572 6.3618474e-39
3.0299087 -2.4733162 0.77424634 6.454043e-39
3.2642705 -2.4551847 0.75815582 7.5603906e-39
3.3055646 -2.4922779 0.74433142 7.5603906e-39
3.5852237 -2.4045978 0.74139589 8.0210128e-39
3.6500595 -2.4231143 0.75032794 7.7447846e-39
3.7526889 -2.4287574 0.75904793 7.8369789e-39
3.8074942 -2.4080453 0.77813488 7.6525876e-39
5.2969332 -2.4163339 0.71452689 2.2404617e-38
5.3667874 -2.4223998 0.72188359 2.3049626e-38
5.4442687 -2.4602749 0.71810418 2.3141822e-38
5.5132837 -2.4951386 0.70792383 2.3234376e-38
2.7906575 -2.3067997 0.79334801 7.3759979e-39
2.8462381 -2.3528957 0.75577366 4.7026862e-39
2.933785 -2.3647919 0.77418333 6.1778177e-39
3.0873725 -2.3129954 0.75714016 7.4681949e-39
3.1509972 -2.3604836 0.75250143 7.6525876e-39
3.3984935 -2.3029003 0.71584183 1.1340057e-38
3.4469428 -2.3250885 0.74417472 1.0141512e-38
3.5468082 -2.381531 0.76174515 8.2057628e-39
3.7681458 -2.3535047 0.72983402 8.0217289e-39
3.8259251 -2.3370335 0.75969255 8.4830657e-39
5.1604114 -2.3225029 0.73642462 2.2404617e-38
5.2522087 -2.3384438 0.73599899 2.3141822e-38
5.3314371 -2.3778746 0.72929567 2.3234018e-38
2.5051622 -2.2179885 0.79873276 7.4674761e-39
2.7635288 -2.2485104 0.79222405 7.1916053e-39
2.8228748 -2.251951 0.77872586 3.9651239e-39
2.9452395 -2.2342417 0.77538437 7.4681949e-39
3.0320501 -2.2685845 0.75364733 7.6525876e-39
3.2679493 -2.2176886 0.75493121 8.574188e-39
3.3499339 -2.2660046 0.75993979 1.0141872e-38
3.4073949 -2.296144 0.7747606 1.0233708e-38
3.7879527 -2.2153153 0.77971327 8.5756201e-39
3.8382444 -2.253866 0.74039316 9.589772e-39
3.9637575 -2.2169549 0.73397768 1.4937479e-38
4.0134478 -2.2178557 0.72082281 1.8164326e-38
4.8841209 -2.2068541 0.71523613 1.880899e-38
4.9704618 -2.2261572 0.74219936 2.1482303e-38
5.0610423 -2.2321584 0.75758535 2.2957071e-38
5.1423478 -2.257319 0.7415548 2.3325853e-38
5.2135968 -2.2918169 0.7242232 2.3326213e-38
2.4404554 -2.1483295 0.78162277 7.283445e-39
2.5528638 -2.110249 0.79791802 6.8224696e-39
2.6693263 -2.1256728 0.79634517 7.4681935e-39
2.7317657 -2.1531241 0.79538852 6.9150198e-39
2.8335462 -2.1510637 0.77682918 3.9644065e-39
2.9278524 -2.1909194 0.75216317 6.9146652e-39
3.0904081 -2.1057172 0.74730474 7.0990579e-39
3.1534553 -2.1448164 0.75463492 7.4678404e-39
3.2251904 -2.1877835 0.77241617 8.6663836e-39
3.6868489 -2.1150746 0.78614217 9.7741661e-39
3.7480803 -2.1492848 0.76510632 9.9585559e-39
3.845947 -2.174587 0.74715191 1.2171611e-38
3.966115 -2.164866 0.77975017 1.853347e-38
4.0206046 -2.1562786 0.74076432 2.0377025e-38
4.1642761 -2.1677804 0.76367211 1.3185766e-38
4.2416444 -2.1554849 0.75310528 1.3462713e-38
4.3451047 -2.1341431 0.73504651 1.3278323e-38
4.4099522 -2.1332259 0.70875722 1.2264173e-38
4.6565051 -2.1006696 0.70539486 1.7241304e-38
4.7626624 -2.1304038 0.73088193 1.9361444e-38
4.858252 -2.1344743 0.77358037 2.2588291e-38
4.9507313 -2.1368737 0.7630688 2.3325853e-38
5.0358024 -2.1787124 0.74601614 2.341769e-38
5.1975999 -2.1048234 0.70488089 1.8254735e-38
5.258894 -2.1152747 0.70981914 1.6134235e-38
5.3386397 -2.1404893 0.70654941 1.5028245e-38
5.4045377 -2.1730335 0.70175743 1.4751655e-38
2.2804272 -2.019033 0.74023902 4.7934497e-39
2.3759019 -2.096333 0.76406503 7.2830862e-39
2.4695654 -2.031745 0.77604574 5.5317336e-39
2.5544939 -2.0470102 0.78676176 7.0994152e-39
2.6510592 -2.0539622 0.78841466 7.099411e-39
2.7629411 -2.0360074 0.74917752 5.6239264e-39
2.8350565 -2.0333984 0.72371495 5.9005161e-39
2.9465199 -2.0262637 0.72613531 7.1912549e-39
3.039068 -2.071728 0.74804378 7.0990593e-39
3.6643498 -2.0683162 0.79125643 1.0972708e-38
3.7204299 -2.081661 0.78467166 1.1986861e-38
3.9496391 -2.0876548 0.79292864 1.7981379e-38
4.0730953 -2.028569 0.79793978 1.4938562e-38
4.1599565 -2.0381205 0.7956838 1.50304e-38
4.2567449 -2.0497591 0.77656376 1.318613e-38
4.34517 -2.0635767 0.73500317 1.2632598e-38
4.4394526 -2.0518265 0.70453942 1.4383596e-38
4.5439463 -2.0361371 0.71649939 1.6134595e-38
4.6458712 -2.0544214 0.75069636 1.9452921e-38
4.7701569 -2.032594 0.76684439 2.3233659e-38
4.8481774 -2.0539491 0.74951327 2.341769e-38
4.913866 -2.0845466 0.7365818 2.341769e-38
5.0510449 -2.0205462 0.71414095 1.8808267e-38
5.1549964 -2.038655 0.71909994 1.539703e-38
5.2415023 -2.0732219 0.71525109 1.4659105e-38
2.1854975 -1.9242815 0.75702465 4.8856453e-39
2.2450194 -1.9211155 0.76003695 4.7016142e-39
2.349076 -1.9234105 0.77064329 4.7019743e-39
2.4287832 -1.9333135 0.75999862 4.425386e-39
2.5519831 -1.9455303 0.76747352 6.6380769e-39
2.658186 -1.9537562 0.77533346 6.7302712e-39
2.7494247 -1.9659433 0.75239551 7.2834492e-39
2.8419838 -1.9672105 0.73547351 7.2834506e-39
2.9172158 -1.9859376 0.76370806 7.1916137e-39
4.0726972 -1.9282528 0.78155196 1.2818068e-38
4.1493635 -1.9452035 0.75144094 1.2448208e-38
4.2506504 -1.9557385 0.71705133 1.3370164e-38
4.3398509 -1.9414819 0.71958858 1.5120805e-38
4.4377804 -1.9577528 0.74271482 1.6687412e-38
4.5323424 -1.9835873 0.765095 1.9176334e-38
4.6569104 -1.9268062 0.75508291 2.341805e-38
4.7384477 -1.96901 0.74262458 2.3325854e-38
4.8573327 -1.930387 0.72727573 2.1758169e-38
4.9533067 -1.9346534 0.73728949 1.6780325e-38
5.0391545 -1.9663972 0.72491211 1.558178e-38
5.1147919 -1.9919615 0.71392143 1.4383237e-38
2.1975763 -1.8993738 0.77611876 5.0700352e-39
2.2033162 -1.8990898 0.77957666 5.0700352e-39
2.3952088 -1.8822032 0.7866956 5.2551481e-39
2.4270537 -1.8539828 0.76919872 4.7019757e-39
2.5591917 -1.8389152 0.74750859 6.4536885e-39
2.6462893 -1.8454241 0.73591489 7.0068651e-39
2.7342625 -1.8680323 0.74193698 7.1912563e-39
2.8634644 -1.8378092 0.78140002 4.7019757e-39
2.9430609 -1.8255332 0.79488808 3.7800194e-39
3.0100448 -1.8182117 0.79903513 3.780018e-39
3.1713135 -1.8067769 0.79713011 4.0573252e-39
3.255204 -1.8224388 0.79176998 4.2417192e-39
3.3406756 -1.8296769 0.79157442 7.7458706e-39
3.438278 -1.828441 0.79442477 1.2356011e-38
3.5251222 -1.8496373 0.79845548 1.6229309e-38
3.9948654 -1.8085282 0.78843296 1.3002102e-38
4.0489216 -1.848806 0.75934416 1.2725155e-38
4.1388574 -1.8605487 0.72442031 1.3923339e-38
4.2451839 -1.8640267 0.74477416 1.567434e-38
4.3418775 -1.8819864 0.77675325 1.6872528e-38
4.4807668 -1.8085694 0.76627249 2.3326215e-38
4.5543728 -1.8456386 0.74400622 2.3325854e-38
4.6368527 -1.8643565 0.73150921 2.3325853e-38
4.7592583 -1.8409755 0.76071662 2.0191203e-38
4.8484197 -1.8536519 0.76045489 1.6504095e-38
4.9219499 -1.8866826 0.73723346 1.5397746e-38
2.3816807 -1.7328836 0.76362669 5.4391792e-39
2.4398544 -1.7430586 0.75390625 5.9927131e-39
2.5404668 -1.7543067 0.73562807 6.6384427e-39
2.6526077 -1.7374648 0.74032706 4.0566063e-39
2.7497432 -1.7272638 0.75586349 4.8867257e-39
2.8451307 -1.7474334 0.77502185 6.2696574e-39
2.9590833 -1.7440507 0.78397822 8.6667423e-39
3.0425704 -1.7436347 0.7849164 8.9436908e-39
3.1511128 -1.7543397 0.78528774 5.1640329e-39
3.2635059 -1.7607355 0.78993654 4.9792843e-39
3.3394156 -1.7386961 0.77972507 4.7027016e-39
3.4437823 -1.7468135 0.77813834 9.5901448e-39
3.5374403 -1.7306147 0.78926867 7.9309836e-39
3.6459684 -1.7329044 0.79383671 1.0420984e-38
3.7389355 -1.7179215 0.79832131 1.2171987e-38
3.8966422 -1.7016606 0.79828334 1.4292841e-38
3.9658315 -1.7444029 0.78421098 1.4108448e-38
4.0350494 -1.7668775 0.7597999 1.4753459e-38
4.1336079 -1.774253 0.78174078 1.6596299e-38
4.298533 -1.7035286 0.79999912 2.3326215e-38
4.3572812 -1.7296342 0.76899195 2.3234019e-38
4.4456658 -1.7629964 0.74992031 2.3234019e-38
4.5611925 -1.7433442 0.76024938 2.0191563e-38
4.6524677 -1.7427824 0.75716144 1.6596292e-38
4.7405119 -1.7799648 0.75183702 1.512152e-38
2.3808651 -1.6466732 0.76674122 6.1767443e-39
2.4338384 -1.6601099 0.74455136 6.0849088e-39
2.554718 -1.656531 0.73511666 4.2409962e-39
2.6463883 -1.6540118 0.74723452 5.4395394e-39
2.7477238 -1.6477797 0.75170714 8.1135672e-39
2.8558462 -1.6434158 0.76198941 1.0326261e-38
2.9668322 -1.6463189 0.77149254 1.1064187e-38
3.0382307 -1.6531762 0.76095444 1.1709918e-38
3.1505299 -1.640578 0.76822048 1.2540399e-38
3.2600582 -1.6362767 0.78261071 1.3001738e-38
3.3575256 -1.6650854 0.78305924 9.7752535e-39
3.4622571 -1.647242 0.78972298 9.2220783e-39
3.5353703 -1.6400152 0.7800523 6.8246402e-39
3.6492043 -1.6374848 0.78178638 8.760031e-39
3.7478471 -1.6446471 0.7894029 1.1987235e-38
3.8444462 -1.6625736 0.79608029 1.456907e-38
3.9560294 -1.6865005 0.7978217 1.6043482e-38
4.1881571 -1.6142043 0.78934389 2.3326215e-38
4.2528806 -1.6477251 0.77472198 2.3325854e-38
4.3410025 -1.672667 0.7665779 2.3234019e-38
4.4512625 -1.6305304 0.75351089 1.558214e-38
4.5439396 -1.6742523 0.75075614 1.4660544e-38
2.3846474 -1.5746591 0.7488777 6.8224724e-39
2.43083 -1.5393952 0.75530291 7.1912549e-39
2.5497713 -1.5467964 0.73186821 5.4395408e-39
2.6391358 -1.5612202 0.73448509 6.5458855e-39
2.7453425 -1.5622532 0.74602163 9.4039486e-39
2.8549771 -1.5456103 0.75836349 1.106347e-38
2.9423451 -1.5550497 0.75460845 1.1986145e-38
3.0590441 -1.5613273 0.76972336 1.3000657e-38
3.1331654 -1.5683246 0.77704287 1.3370159e-38
3.2672267 -1.59472 0.79126495 1.3924053e-38
3.3340704 -1.5799782 0.79288137 1.4753815e-38
3.4597466 -1.5417289 0.79226196 1.3001738e-38
3.5502906 -1.5618894 0.78897798 1.134222e-38
3.6522875 -1.558733 0.78587085 1.0788335e-38
3.7329295 -1.5638319 0.78483886 1.2263108e-38
3.8189292 -1.5878353 0.79613674 1.4381812e-38
4.0821891 -1.5147315 0.79506427 2.3234019e-38
4.146904 -1.562458 0.78781515 2.3234019e-38
4.2595992 -1.5320364 0.75317556 1.6044198e-38
4.3535886 -1.5665139 0.75333172 1.4108089e-38
2.2910657 -1.40044 0.79988122 9.8649128e-39
2.3744721 -1.41816 0.77039933 7.9288116e-39
2.4305222 -1.4666976 0.75384271 7.744786e-39
2.5486259 -1.4537385 0.71112722 5.1629525e-39
2.6484163 -1.4522495 0.72197497 6.0849102e-39
2.7467508 -1.4501789 0.73294568 9.3121159e-39
2.8497844 -1.4708854 0.74744648 1.2354929e-38
2.948683 -1.4499079 0.76144737 1.2724435e-38
3.0733387 -1.4739765 0.7855292 1.2817348e-38
3.1482053 -1.4088533 0.79596454 1.1986507e-38
4.0775423 -1.4177117 0.74033904 1.4660903e-38
4.1496458 -1.4509796 0.75179768 1.4569068e-38
4.2230415 -1.4912025 0.75583839 1.4199925e-38
2.2897952 -1.3218576 0.77643168 9.956028e-39
2.3305538 -1.3548704 0.7478615 9.3117446e-39
2.5683117 -1.3750092 0.70281041 5.3473465e-39
2.6448064 -1.3611498 0.7064687 6.4540542e-39
2.7525277 -1.3453842 0.71951765 8.1139357e-39
2.8701544 -1.3428726 0.74076498 9.128445e-39
2.949038 -1.3238841 0.75546896 7.1923353e-39
3.0517707 -1.3642062 0.77791655 9.4053906e-39
3.1477597 -1.3769687 0.79923356 9.6812586e-39
3.8737314 -1.3126302 0.74885255 1.3001026e-38
3.953481 -1.3466133 0.74957937 1.4937131e-38
4.0313244 -1.3856766 0.74601322 1.4845296e-38
2.2848668 -1.2524035 0.76784045 1.0232618e-38
2.3308601 -1.2342858 0.72416532 1.050993e-38
2.4505374 -1.2216364 0.72440976 1.2170176e-38
2.5478761 -1.2256289 0.74058056 1.2723712e-38
2.6695786 -1.2351272 0.7482605 1.2723714e-38
2.7228956 -1.2413279 0.73624432 1.0142238e-38
2.8429232 -1.2740787 0.73511088 6.0859906e-39
2.9620719 -1.2334378 0.76762056 1.2909187e-38
3.0631578 -1.2498798 0.78711933 9.1284492e-39
3.1505342 -1.2455711 0.79530442 9.9567763e-39
3.2074871 -1.2357552 0.7972784 9.4940059e-39
3.6526635 -1.2172483 0.74912435 1.4476516e-38
3.7495461 -1.2575592 0.74629706 1.4200288e-38
3.8285899 -1.2912021 0.74935681 1.3554558e-38
2.2882385 -1.180637 0.79125917 1.0786153e-38
2.3408136 -1.1509738 0.76520962 1.0601763e-38
2.4362807 -1.1536213 0.75031769 1.0232625e-38
2.5702519 -1.1194963 0.77548283 1.3092128e-38
2.662261 -1.1548697 0.75209177 1.5120799e-38
2.7392716 -1.1318743 0.75166267 1.7057271e-38
2.8437185 -1.1403865 0.76754516 1.8717152e-38
2.9481976 -1.1610038 0.77769881 1.9178492e-38
3.0502834 -1.1576592 0.78656238 2.0745817e-38
3.1549189 -1.1320256 0.79106611 1.5674342e-38
3.2271752 -1.1477226 0.79290462 9.6783986e-39
3.3587785 -1.1121536 0.7360813 1.4567634e-38
3.4549344 -1.1374445 0.73058999 1.3001027e-38
3.5484748 -1.1750089 0.74137861 1.3738951e-38
3.6110735 -1.196655 0.71805876 1.3831144e-38
2.2969475 -1.0561066 0.79928124 1.0695042e-38
2.3522367 -1.0558648 0.77453929 1.0233704e-38
2.444418 -1.0480257 0.77470785 1.097055e-38
2.5628057 -1.082414 0.78543937 1.3183967e-38
2.649251 -1.0801333 0.78463387 1.2538956e-38
2.7339098 -1.0826333 0.78768605 1.3091775e-38
2.8041472 -1.0991603 0.79696906 1.2446407e-38
2.998003 -1.005026 0.7424956 1.7796277e-38
3.0618114 -1.0313487 0.7544899 1.548995e-38
3.1382837 -1.0640888 0.77336466 1.7702646e-38
3.2604485 -1.0635198 0.71951562 1.4936774e-38
3.3282838 -1.0867833 0.70451987 1.6966514e-38
2.8790905 -0.93020922 0.70923907 1.8626038e-38
2.9648211 -0.94810212 0.74193776 1.9086297e-38
3.042675 -0.95119989 0.7719211 2.1022047e-38
3.1192896 -0.99094182 0.79203463 2.1482665e-38
2.7653644 -0.81998807 0.71186274 2.0099728e-38
2.8412745 -0.85429674 0.72698927 2.0468512e-38
2.9339375 -0.88794303 0.75734627 2.0652543e-38
2.6995673 -0.78165334 0.70882785 2.0928408e-38
2.7158675 -0.79108471 0.70723104 2.009865e-38
3.5957849 -0.40308809 0.70552319 1.0236945e-38
3.6213639 -0.40073109 0.7053166 1.0329142e-38
3.8887501 -0.40226862 0.70970327 1.1065991e-38
3.9244301 -0.40255436 0.70659709 1.1158187e-38
3.1994913 -0.30788988 0.73854601 1.4660541e-38
3.2700932 -0.30618328 0.75296926 1.4844934e-38
3.3582165 -0.30541006 0.77843118 1.0603934e-38
3.4191563 -0.30436498 0.79911715 1.0419543e-38
3.5724635 -0.31544495 0.70610136 9.4057465e-39
3.670393 -0.37399098 0.71585387 1.0328423e-38
3.7505987 -0.37406126 0.72544676 1.0604651e-38
3.8535404 -0.35570562 0.74032277 1.0973074e-38
3.9648108 -0.3737424 0.73705685 1.1157468e-38
4.0580616 -0.34308887 0.73893058 1.1250382e-38
4.148737 -0.32658696 0.7195313 1.1619526e-38
4.2463374 -0.31827998 0.71635228 1.1804278e-38
4.3501806 -0.30249104 0.70286667 1.088232e-38
3.092922 -0.29540014 0.70278788 1.1711003e-38
3.1636438 -0.28827661 0.71017057 1.1618449e-38
3.2591183 -0.27625906 0.72458619 1.1618447e-38
3.3585711 -0.25065002 0.73271263 1.1249305e-38
3.4447913 -0.23557495 0.76133066 1.1157108e-38
3.5177791 -0.22621919 0.78390539 1.1433694e-38
3.6505673 -0.23869342 0.71457803 7.2848939e-39
3.7578425 -0.23517114 0.72812617 9.221721e-39
3.8554986 -0.25604862 0.74401903 1.0789045e-38
3.9482555 -0.24733163 0.75233346 1.1158188e-38
4.0654922 -0.27055934 0.76122594 1.1158548e-38
4.1489072 -0.26411712 0.76167119 1.1434776e-38
4.2667427 -0.26678312 0.76132351 1.1619526e-38
4.3553109 -0.24433455 0.73809731 7.0097461e-39
4.4009266 -0.28065187 0.70477259 6.8246346e-39
3.3889165 -0.13279511 0.70673466 1.0051124e-38
3.4509344 -0.1558997 0.73646843 1.0419545e-38
3.5298841 -0.15023693 0.77914214 1.1064912e-38
3.6517227 -0.16170804 0.70641381 6.271821e-39
3.7488277 -0.1536824 0.70999074 6.5491267e-39
3.8482616 -0.14996877 0.71374631 4.5204641e-39
3.9540002 -0.14394994 0.72057062 5.5346161e-39
4.0493665 -0.1323799 0.7208392 1.0145114e-38
4.1525178 -0.15444401 0.72500265 1.0329143e-38
4.2494183 -0.17743161 0.72503984 3.7832564e-39
4.3202176 -0.1947986 0.73268729 3.6907021e-39
3.297446 -0.0033474499 0.70407194 9.7752521e-39
3.3573735 -0.047921706 0.71716124 1.0328067e-38
3.4563806 -0.053155582 0.75868106 1.1618086e-38
3.5154631 -0.052932791 0.79095542 1.1710281e-38
3.7689607 -0.090823524 0.70144051 2.124098e-39
3.8609221 -0.080593914 0.70781291 9.3142753e-39
3.9554138 -0.082236134 0.71160847 1.4201723e-38
4.0160666 -0.092150897 0.70976722 1.567793e-38
3.2914093 0.051930636 0.70414263 1.2080502e-38
3.3594217 0.060530301 0.73878145 1.2448925e-38
3.438333 0.03868036 0.77891815 1.2171978e-38
3.2959607 0.13456063 0.70375472 1.4385392e-38
3.3650148 0.14671788 0.73622316 1.337088e-38
3.4218752 0.15866652 0.78153175 1.3002099e-38
3.2951393 0.20344502 0.70595753 1.7611878e-38
3.3560665 0.25635046 0.73535931 1.7796269e-38
3.4279666 0.24100202 0.78544515 1.4846012e-38
3.3685756 0.35354906 0.74106723 1.5399547e-38
3.4084597 0.33621153 0.7888642 1.4109898e-38
2.97752 0.4981488 0.75246143 1.7796988e-38
3.0393417 0.49852994 0.76771909 1.4938563e-38
3.1814754 0.4949626 0.787503 1.4754534e-38
3.2567298 0.47826234 0.75311077 1.1527335e-38
3.3485918 0.43231207 0.75125349 1.0329157e-38
2.7978113 0.59377366 0.70914662 1.1341133e-38
2.8388569 0.57909507 0.74918145 1.207942e-38
2.9318857 0.53429538 0.75050807 2.0009323e-38
3.0598013 0.50249898 0.73538488 1.3464153e-38
3.1544271 0.50687259 0.75319296 1.3279403e-38
3.2253852 0.5085482 0.73215163 1.0328789e-38
2.796181 0.63926095 0.70736378 1.1156743e-38
2.8209436 0.65076429 0.75447023 1.1064549e-38
2.3860087 0.79891628 0.70428944 1.4015525e-38
2.4514797 0.79738003 0.71380544 5.8101169e-39
2.518743 0.79835671 0.70916963 1.3830779e-38
2.6781821 0.79743165 0.74362016 1.2539679e-38
2.7436004 0.77738971 0.74028724 1.1986505e-38
2.8472245 0.75084788 0.75312662 1.0695766e-38
2.2967045 0.89748186 0.70434374 1.4568336e-38
2.3490829 0.85398769 0.74800557 1.3830772e-38
2.4364536 0.80934101 0.75952321 6.7317131e-39
2.5519681 0.80952746 0.76069343 1.3185406e-38
2.6380632 0.80708081 0.75236917 1.2816266e-38
2.7839687 0.80215347 0.75594676 1.1986505e-38
2.8562725 0.80657387 0.75138634 1.0511374e-38
2.9004278 0.8046329 0.799227 1.0142593e-38
2.0926313 0.97280514 0.70874208 1.3553825e-38
2.1435232 0.97225136 0.75138664 9.5897734e-39
2.2635968 0.94707561 0.75004226 1.383077e-38
2.3103452 0.91049689 0.76932675 1.3738575e-38
1.3655518 1.0834906 0.72302276 1.1432606e-38
1.9987305 1.0936985 0.70070159 1.4106255e-38
2.0796237 1.0568541 0.7157433 1.2908813e-38
2.1341243 1.0501773 0.76396716 1.1986858e-38
1.3856083 1.1321793 0.72738039 1.2077975e-38
1.409176 1.1802794 0.74203694 1.2170171e-38
1.5388302 1.1894 0.71844941 1.32776e-38
1.6852912 1.1926481 0.70263487 1.8252166e-38
1.7501215 1.1847308 0.71647054 1.4653284e-38
1.8356185 1.1778287 0.71139258 1.9265599e-38
1.9569777 1.1396626 0.71189088 1.7146905e-38
2.074976 1.1492448 0.75009996 1.2263081e-38
2.1169646 1.1390744 0.78004026 1.1433323e-38
1.3998271 1.2062267 0.70076776 1.2999934e-38
1.4311037 1.2300812 0.75101739 1.2170171e-38
1.5810246 1.2115993 0.73878777 1.3737854e-38
1.6461705 1.2309082 0.74594015 1.4383218e-38
1.7585826 1.2478749 0.76261288 1.2631501e-38
1.8382052 1.2299968 0.77356088 1.0602476e-38
1.9432845 1.2434233 0.77798426 1.2631143e-38
2.0580578 1.2321314 0.78377783 1.2631503e-38
1.5302118 1.3353589 0.70324987 4.698352e-39
3.3690875 -2.7162731 0.81977355 7.6525834e-39
3.4458869 -2.7422161 0.81679493 7.9288102e-39
2.9286616 -2.6042068 0.80418843 7.5593088e-39
3.2680304 -2.6458294 0.82862467 7.4685537e-39
3.3529854 -2.6521761 0.83587968 7.8369747e-39
3.4126208 -2.6793497 0.81142962 8.0213659e-39
2.8641171 -2.5298529 0.82807606 7.2830834e-39
2.9229338 -2.5458336 0.81689763 7.3756378e-39
3.1723599 -2.5377696 0.83271319 7.4685551e-39
3.2620063 -2.5368476 0.8412044 7.9291703e-39
3.329474 -2.5627577 0.82087266 8.1132014e-39
2.7516379 -2.4219346 0.84625876 7.4678334e-39
2.8510258 -2.4493792 0.8406263 7.5603892e-39
2.9089549 -2.4821734 0.82208276 7.4681935e-39
3.0580933 -2.4388404 0.81538397 7.3763594e-39
3.1526716 -2.4451473 0.83455217 7.6525848e-39
3.2510009 -2.4713871 0.82839429 7.9291703e-39
3.3014126 -2.4990714 0.81208158 7.8369761e-39
3.6625326 -2.4110124 0.8099618 7.7447804e-39
3.7507172 -2.418807 0.81269217 7.744779e-39
3.8066716 -2.4037523 0.80319029 7.6525876e-39
2.6727819 -2.3412237 0.84187376 7.375279e-39
2.7652273 -2.3587627 0.84693319 7.5603892e-39
2.8274748 -2.3717539 0.83378673 7.6525848e-39
2.9707971 -2.3296475 0.80489856 7.6525848e-39
3.0533476 -2.3530262 0.81521195 7.5600304e-39
3.1349976 -2.3802931 0.81934172 7.5603892e-39
3.4778852 -2.3175304 0.8131755 8.1135658e-39
3.5596282 -2.3357954 0.83154297 8.2979542e-39
3.6505163 -2.3464117 0.84295118 8.1139203e-39
3.7501986 -2.3442733 0.83239096 7.8376949e-39
3.8235552 -2.3316863 0.80926675 8.2986745e-39
2.5548811 -2.2457001 0.81302738 7.2834435e-39
2.6767433 -2.225306 0.82586205 7.2834464e-39
2.7390051 -2.2559688 0.8175903 7.2838037e-39
2.8056653 -2.2186949 0.80257088 3.5959799e-39
2.9794447 -2.2889946 0.80308062 7.3759979e-39
3.013072 -2.289494 0.80200934 7.6525848e-39
3.2847257 -2.2075171 0.81306535 9.4043046e-39
3.3579321 -2.227942 0.83359766 8.20576e-39
3.4461677 -2.2506053 0.85280973 8.1135644e-39
3.5484419 -2.2626405 0.87888354 7.8369775e-39
3.6602049 -2.2589166 0.87662369 7.4685565e-39
3.7409155 -2.2679222 0.84494549 8.0224463e-39
3.8217893 -2.2805929 0.81334555 9.3131851e-39
2.3880417 -2.1149595 0.88472414 4.9781955e-39
2.4285288 -2.1215053 0.89516926 6.2692916e-39
2.5852633 -2.1329496 0.80697447 6.9150254e-39
2.6632559 -2.1543996 0.80764753 7.3760007e-39
2.7547796 -2.1627448 0.80346346 5.6242823e-39
2.8112948 -2.1698484 0.80342847 3.5034283e-39
3.1674564 -2.1261723 0.8315869 8.8507749e-39
3.2479923 -2.1558833 0.84905899 8.0213715e-39
3.3493125 -2.1731744 0.87558484 7.6525876e-39
3.4435594 -2.1540508 0.89183915 7.3763622e-39
3.5645123 -2.1281922 0.87464893 7.1004956e-39
3.6489375 -2.1514711 0.84079522 7.5607535e-39
3.7130098 -2.1755686 0.80993372 8.3912288e-39
3.8632593 -2.1228809 0.81528616 1.6504807e-38
3.9455352 -2.1361272 0.81379777 1.9732375e-38
4.0716276 -2.1141531 0.80833071 1.3739659e-38
4.1461005 -2.1262214 0.80449516 1.3831857e-38
4.8788257 -2.1024129 0.80241972 2.341769e-38
2.2776985 -2.0103133 0.83398515 4.8856439e-39
2.3459809 -2.0436575 0.86013228 5.1625881e-39
2.451288 -2.0402131 0.88716304 6.5462372e-39
2.5113869 -2.0174713 0.89698279 7.2834435e-39
2.6467125 -2.090642 0.80185145 7.5600332e-39
2.9867249 -2.0152481 0.80901062 8.3897995e-39
3.0597403 -2.0594873 0.82283807 8.4819951e-39
3.1137474 -2.0923765 0.83188635 8.7585806e-39
3.2653186 -2.0400629 0.85770887 5.7168451e-39
3.3498459 -2.0445123 0.86361271 5.0718358e-39
3.4550815 -2.0444789 0.85855496 7.8380635e-39
3.5661211 -2.0498662 0.84171921 9.4972233e-39
3.6404934 -2.0495646 0.82167214 1.1341495e-38
3.7619324 -2.0451605 0.83424419 1.6597003e-38
3.850982 -2.056556 0.83951634 1.8257603e-38
3.9329073 -2.0477011 0.82603168 1.6690639e-38
4.0461707 -2.0402324 0.81210071 1.5123312e-38
4.1394138 -2.0662959 0.8030951 1.4200638e-38
4.2203178 -2.0268862 0.80126226 1.3094295e-38
4.6816373 -2.0129271 0.81840473 2.3049628e-38
4.7541676 -2.0274863 0.81916189 2.3142182e-38
4.8397303 -2.073612 0.80959195 2.3234019e-38
2.2577863 -1.9373448 0.81133467 4.9785556e-39
2.3530369 -1.9269212 0.82290965 5.070754e-39
2.4297285 -1.929643 0.84608853 5.3473395e-39
2.5295336 -1.9391067 0.89067352 7.6522233e-39
2.9567797 -1.9858707 0.81232446 8.2976039e-39
3.0719142 -1.9152333 0.8145628 3.2268456e-39
3.1582141 -1.9335928 0.83024055 3.5037927e-39
3.2559464 -1.9447641 0.83630669 3.3201217e-39
3.3457606 -1.9495093 0.82950181 6.5469673e-39
3.4495773 -1.9501748 0.82223833 1.0419181e-38
3.5475392 -1.9639639 0.82521641 1.2816626e-38
3.6375458 -1.960182 0.83029795 1.5951994e-38
3.7407298 -1.9621778 0.83790779 1.7519685e-38
3.8581963 -1.9586501 0.84287167 1.5767967e-38
3.9585905 -1.9536188 0.83664256 1.567649e-38
4.0284219 -1.9619862 0.81768656 1.5307707e-38
4.1304955 -1.9758483 0.80519485 1.2173057e-38
4.4747405 -1.917511 0.81990951 2.1482306e-38
4.5635371 -1.9286581 0.84106171 2.2957072e-38
4.6450124 -1.9513289 0.83094084 2.3234018e-38
4.7148623 -1.9857268 0.81938922 2.3234019e-38
2.3983893 -1.8722569 0.8075968 5.2551481e-39
2.4272852 -1.8558095 0.82817757 5.5317322e-39
2.5198658 -1.8470671 0.88647729 7.9288074e-39
2.9827886 -1.8430589 0.80469871 3.5956282e-39
3.0490534 -1.8615223 0.81094152 3.9644107e-39
3.1562891 -1.8451266 0.81238562 3.965131e-39
3.2377291 -1.8691052 0.81000996 3.7807397e-39
3.3487408 -1.8874136 0.80555648 9.6816173e-39
3.4471476 -1.8711507 0.80385071 1.3185409e-38
3.5527251 -1.869249 0.80882341 1.5767608e-38
3.6570981 -1.8547935 0.81477165 1.5676134e-38
3.729923 -1.8504944 0.81936109 1.549174e-38
3.8590772 -1.8464904 0.82771009 1.4662341e-38
3.9582524 -1.8491141 0.81676811 1.2725516e-38
4.0110426 -1.8567386 0.80643237 1.2080147e-38
4.2833972 -1.8056459 0.84047258 2.0652188e-38
4.3606834 -1.8294713 0.85381228 2.1851087e-38
4.4590669 -1.8396461 0.85849047 2.3049628e-38
4.5416093 -1.8707304 0.8445881 2.3234019e-38
4.7633429 -1.8098569 0.80173963 1.7702281e-38
2.3933125 -1.7419802 0.80628234 5.7154046e-39
2.4512355 -1.749743 0.84724891 7.1908878e-39
2.5105348 -1.7490461 0.89135998 7.7444161e-39
3.0416338 -1.7934126 0.80303264 9.7738088e-39
3.1547308 -1.7978754 0.80101913 4.6108577e-39
3.5097566 -1.7048633 0.80003846 5.6264516e-39
3.6484003 -1.7785813 0.80067825 1.4477589e-38
3.7649035 -1.7552434 0.80540341 1.2357095e-38
3.8568618 -1.7463524 0.80957067 1.2818075e-38
3.9381866 -1.7673416 0.81079 1.3186496e-38
4.0535631 -1.710511 0.81056154 1.7610451e-38
4.1570807 -1.726145 0.84746361 2.0836577e-38
4.2611046 -1.7333694 0.86880934 2.2588651e-38
4.3433514 -1.7494774 0.85165888 2.3234019e-38
4.4208474 -1.7881415 0.84398246 2.3234019e-38
4.5746608 -1.7161375 0.80958706 2.046815e-38
4.6463165 -1.7416791 0.80771983 1.7978868e-38
4.7232018 -1.7821131 0.80520278 1.7056912e-38
2.396076 -1.6515319 0.8042838 6.9143023e-39
2.4465096 -1.6490264 0.84644371 7.560029e-39
2.5038199 -1.6872593 0.89438933 7.6522219e-39
3.2649267 -1.6041815 0.80604744 1.3462354e-38
3.4717686 -1.6471006 0.80209285 1.3371599e-38
3.864161 -1.6493248 0.80273896 1.4843864e-38
3.9476583 -1.6551212 0.82041949 1.6873244e-38
4.042624 -1.6505866 0.86779475 2.1574142e-38
4.1714482 -1.6300147 0.86177701 2.3234019e-38
4.2373734 -1.6707481 0.84636742 2.3234019e-38
4.3656306 -1.6131283 0.81249225 2.2312061e-38
4.4464488 -1.6326108 0.81556433 1.8163258e-38
4.531189 -1.6802577 0.80929315 1.751789e-38
2.3932877 -1.503629 0.86262941 7.7440588e-39
2.4262795 -1.5552329 0.83860105 7.3756364e-39
3.1633337 -1.5389222 0.80339152 1.318541e-38
3.2627559 -1.5712757 0.81322253 1.3462356e-38
3.3382187 -1.5475957 0.81655389 1.3462717e-38
3.4347527 -1.5357629 0.81486142 1.2908822e-38
3.5656235 -1.5117035 0.8134377 1.4015172e-38
3.6388392 -1.5120445 0.82372892 1.5029686e-38
3.753298 -1.5355724 0.84954435 1.5582503e-38
3.8417373 -1.5663042 0.85994899 1.613532e-38
3.9213774 -1.5905046 0.88004804 1.9638394e-38
4.0715804 -1.5248365 0.85531205 2.3326215e-38
4.1332507 -1.5679083 0.84103036 2.3234019e-38
4.2668676 -1.5287564 0.83789802 1.8439846e-38
4.3550959 -1.5617143 0.83152407 1.6595934e-38
4.4087949 -1.5929878 0.82528996 1.5673977e-38
2.2904711 -1.4096699 0.83207226 9.6798055e-39
2.3453958 -1.4500275 0.84587824 8.3894268e-39
2.4040828 -1.4857041 0.80794269 7.0068525e-39
3.1796043 -1.4447356 0.80620313 1.1802474e-38
3.2463267 -1.4542145 0.81489515 1.2171258e-38
3.3535419 -1.4520147 0.83032334 1.3000659e-38
3.4578111 -1.4709581 0.82998264 1.3554194e-38
3.5460098 -1.4638284 0.84576571 1.4844936e-38
3.6456258 -1.4775703 0.86656648 1.668885e-38
3.7106898 -1.447749 0.89109457 2.0191566e-38
3.9753995 -1.4254347 0.87288392 2.341769e-38
4.0339456 -1.463945 0.84641266 2.2680485e-38
4.1458688 -1.4531045 0.83250576 1.6043121e-38
4.2282801 -1.4831127 0.8439917 1.4106653e-38
2.268899 -1.3508483 0.82973373 8.8500448e-39
2.313139 -1.3693933 0.84217662 9.3110215e-39
3.1717439 -1.340228 0.80625093 7.6526002e-39
3.2398517 -1.3392746 0.81097031 9.8652953e-39
3.3390503 -1.3629357 0.82425195 1.4567271e-38
3.4483824 -1.3606914 0.84241652 1.8715717e-38
3.5412238 -1.3497746 0.85829926 2.2862005e-38
3.690593 -1.3028709 0.87852955 2.3046035e-38
3.7349975 -1.3475838 0.89139128 2.3231862e-38
3.8689508 -1.3172468 0.85273582 1.8900108e-38
3.9500928 -1.3677897 0.8641609 2.1112802e-38
4.0355101 -1.3869797 0.82161444 1.3922983e-38
2.1903327 -1.2376105 0.826096 5.1629497e-39
2.2363958 -1.2515186 0.83201683 9.5879714e-39
2.6793654 -1.2257332 0.80663258 1.4659453e-38
2.7074845 -1.226881 0.81181741 1.5858356e-38
3.177232 -1.246145 0.80539107 9.2202917e-39
3.2298307 -1.2469311 0.80576622 1.0417041e-38
3.3343468 -1.251754 0.81804383 1.4468258e-38
3.4350238 -1.2720822 0.8356483 1.8153561e-38
3.5553982 -1.2295324 0.84634709 2.2858765e-38
3.6479759 -1.2433149 0.84370458 2.0189049e-38
3.7530618 -1.2679423 0.83824027 1.8346574e-38
3.8232493 -1.2920992 0.83165234 1.7518253e-38
2.1849575 -1.153393 0.84240961 8.2979598e-39
2.243999 -1.1447132 0.83455771 1.2539312e-38
2.3092642 -1.1285999 0.83383268 1.4844204e-38
2.4254014 -1.1046234 0.89399862 1.2722986e-38
2.6598814 -1.1883986 0.80400455 1.8070328e-38
2.8717551 -1.1214986 0.81078941 1.6227147e-38
2.9492197 -1.1346109 0.83281308 1.7517889e-38
3.0501387 -1.1588099 0.83471423 1.9454357e-38
3.1586285 -1.1646347 0.84358293 2.1667053e-38
3.2233722 -1.1392208 0.8608259 2.1850366e-38
3.3471019 -1.1745965 0.80922604 1.4652645e-38
3.4478571 -1.1938953 0.82404184 2.0643555e-38
3.5476775 -1.1807647 0.80356437 1.6595938e-38
2.1950543 -1.088806 0.81771421 4.4261063e-39
2.251169 -1.069869 0.8229543 9.2199161e-39
2.3452113 -1.0501883 0.83697736 1.2077619e-38
2.4466493 -1.0435054 0.8484394 1.2538594e-38
2.5507107 -1.050434 0.84520245 1.4198116e-38
2.6541998 -1.0628389 0.83954632 1.2630793e-38
2.743135 -1.0621883 0.85479075 1.3276165e-38
2.8382466 -1.0789509 0.85535401 1.3829699e-38
2.9145024 -1.0919528 0.89140266 1.4198121e-38
3.1763477 -1.0468513 0.81354189 2.1759609e-38
3.2219925 -1.0539051 0.86564833 2.3141103e-38
3.0533566 -0.93215621 0.80742186 2.1850723e-38
3.151545 -0.97161692 0.84038717 2.1112801e-38
3.2238126 -0.98941654 0.88005978 2.1850724e-38
3.3066235 -0.90495133 0.89684516 1.9085572e-38
3.1863992 -0.84314936 0.85241932 1.2816626e-38
3.2519753 -0.84337312 0.87907338 1.2816627e-38
3.3357587 -0.81629461 0.88633758 1.2355289e-38
3.4075756 -0.80279315 0.89374477 1.2262733e-38
3.4557612 -0.76295018 0.89392149 1.1802114e-38
3.5142593 -0.73196173 0.89739275 1.1433331e-38
3.4918699 -0.68865591 0.89419395 1.2816263e-38
3.5241556 -0.68485594 0.89736927 1.456798e-38
3.46596 -0.31241548 0.81229264 1.0142956e-38
3.5549066 -0.31640965 0.84112614 1.0142956e-38
3.6519368 -0.31872109 0.87463289 1.0051117e-38
3.7355039 -0.3451477 0.89280295 9.958563e-39
3.4718101 -0.28454283 0.80808395 1.0511738e-38
3.5596037 -0.24783468 0.82634014 1.0788325e-38
3.6448338 -0.2414315 0.87135226 1.0695769e-38
3.5706248 -0.15375154 0.82023948 1.1341499e-38
3.6468756 -0.14756687 0.87018514 1.1156747e-38
3.5627744 -0.040964026 0.83182561 1.152625e-38
3.6274607 -0.06329561 0.87479454 1.1341859e-38
3.4749186 0.059528496 0.82103688 1.1895752e-38
3.5423055 0.043739386 0.86542386 1.1618805e-38
3.6074638 0.0077802455 0.89517033 1.152589e-38
3.4718153 0.14715771 0.82360756 1.2633317e-38
3.5321736 0.15414865 0.87199038 1.2355651e-38
3.4746356 0.25823954 0.82159895 1.3555273e-38
3.5305936 0.24475017 0.8689515 1.2817708e-38
3.3932385 0.39282739 0.82941419 8.6710822e-39
3.4432127 0.35362482 0.84776217 1.4201002e-38
3.5130291 0.32475221 0.88839567 1.3094654e-38
2.9791241 0.49689907 0.8537035 1.844164e-38
3.045758 0.49484926 0.85000306 1.3831498e-38
3.1679649 0.48732588 0.85089588 1.3923694e-38
3.2534444 0.45334336 0.8505739 1.3739664e-38
3.346626 0.4196637 0.84167653 1.1528417e-38
2.8532977 0.58251852 0.848288 1.0787963e-38
2.9470091 0.53914207 0.84955084 1.8718225e-38
2.8631971 0.64935261 0.85066521 1.0603569e-38
2.6754305 0.79773849 0.84978616 1.1709917e-38
2.7246294 0.79708701 0.84947258 1.1617361e-38
2.8880415 0.73108405 0.84239364 1.0326981e-38
2.9133055 0.77367711 0.86518806 9.8660044e-39
2.3621728 0.86189479 0.85421902 9.9585545e-39
2.4428146 0.82477075 0.84687769 1.0603568e-38
2.5518701 0.81875861 0.85266703 1.2539678e-38
2.6332467 0.80479646 0.84699667 1.1986504e-38
2.7837822 0.80265945 0.85324156 1.143297e-38
2.8594267 0.81113142 0.84597117 1.0603569e-38
2.9182584 0.80895263 0.86031717 9.6816131e-39
2.1709945 0.98090369 0.8534252 8.6678157e-39
2.2510393 0.9465332 0.85046405 1.171027e-38
2.3160133 0.91220969 0.84055209 1.1986858e-38
2.1810415 1.0527309 0.85059458 1.1157096e-38
2.0853293 1.1960673 0.89361221 9.035871e-39
2.1605215 1.1588643 0.85467833 9.7730801e-39
2.2012589 1.1188879 0.89445984 9.9578343e-39
1.5923299 1.2328101 0.80653417 1.1616997e-38
1.6632571 1.2667699 0.83785415 1.1525161e-38
1.7421976 1.2851428 0.83531797 1.1802107e-38
1.8582412 1.2492666 0.83540583 8.3908673e-39
1.9478576 1.239329 0.85670209 9.4968533e-39
2.0536506 1.2307715 0.84893298 1.0326613e-38
2.1149776 1.2130286 0.84639144 1.0142219e-38
1.6996157 1.3002716 0.89743245 1.134041e-38
1.7595602 1.3096236 0.8783856 1.1156379e-38
1.8512236 1.3245757 0.86971915 1.1156736e-38
1.9133139 1.3226954 0.89140815 1.0050027e-38
2.6213851 -2.3121994 0.99031168 7.6525834e-39
2.4919086 -2.2026591 0.92752135 7.5603892e-39
2.5662475 -2.2333269 0.95670331 7.5600276e-39
2.619221 -2.2416279 0.98756701 7.467832e-39
3.4810519 -2.2106812 0.90459806 7.8369775e-39
3.5414639 -2.2193327 0.90467227 7.652589e-39
3.6469171 -2.2434845 0.90927541 7.7455035e-39
3.7008591 -2.2648616 0.90232974 7.9298948e-39
2.477397 -2.1459224 0.91392511 7.1916067e-39
2.5609598 -2.1490593 0.94179642 7.3756364e-39
2.6394327 -2.1480744 0.97860605 7.5600276e-39
3.4671776 -2.191808 0.90284139 7.5607535e-39
3.543715 -2.1816077 0.90383708 7.561115e-39
3.6142807 -2.1962335 0.90468311 7.9298962e-39
2.4853017 -2.0833349 0.90517217 7.2838009e-39
2.5537384 -2.0459628 0.91766202 7.467832e-39
2.6480689 -2.0544524 0.96779394 7.7444175e-39
2.5814426 -1.9368742 0.92063856 7.9288088e-39
2.6249411 -1.9560206 0.96462542 7.467832e-39
2.5718551 -1.8451352 0.95094758 7.6518631e-39
