# .PCD v0.7 - Point Cloud Data file format
VERSION 0.7
FIELDS x y z rgb
SIZE 4 4 4 4
TYPE F F F F
COUNT 1 1 1 1
WIDTH 1038
HEIGHT 1
VIEWPOINT 0 0 0 1 0 0 0
POINTS 1038
DATA ascii
2.5120983 -1.1696512 -0.012075234 1.2998478e-38
2.6749504 -1.1198447 -0.016963109 8.0155814e-39
2.7546847 -1.1675355 -0.013923729 6.6326511e-39
1.8829504 -1.0579207 -0.054528665 5.8068659e-39
1.9276472 -1.040478 -0.064222753 8.388338e-39
2.0421507 -1.0841228 -0.090897501 1.189141e-38
2.1358972 -1.0944827 -0.097266756 1.2630056e-38
2.5741494 -1.0131273 -0.023976758 7.2758471e-39
2.6514833 -1.0637014 -0.014875175 8.0126877e-39
1.8331019 -0.98803437 -0.09279377 6.544068e-39
2.4691086 -0.92172194 -0.031265333 7.2769289e-39
2.5266583 -0.96398681 -0.019492405 7.460237e-39
2.2883153 -0.80694097 -0.063835628 6.6333672e-39
2.3554265 -0.8322888 -0.037426643 5.7110535e-39
2.4310701 -0.85766703 -0.015017904 4.3306484e-39
1.4930502 -0.71937877 -0.08292716 4.2409906e-39
1.5063637 -0.72481406 -0.067921519 4.5175747e-39
2.2608385 -0.74647361 -0.069130175 5.5277441e-39
2.3567941 -0.75031674 -0.023858432 5.8054156e-39
2.4108584 -0.7364794 -0.0061093653 6.173838e-39
1.4860696 -0.65585196 -0.071547449 5.3469752e-39
1.5448272 -0.6407519 -0.064043179 1.1708097e-38
1.6161947 -0.64088047 -0.070017092 1.382823e-38
2.1899488 -0.60963482 -0.08246132 4.4203217e-39
2.2470222 -0.65176272 -0.065067314 4.9738542e-39
2.3323624 -0.6604588 -0.026560187 5.8057757e-39
2.4510124 -0.65230483 -0.013103524 9.4035549e-39
2.5266101 -0.65405089 -0.008949603 1.2355254e-38
1.4591779 -0.59932375 -0.066304579 7.4674537e-39
1.5628433 -0.59907019 -0.05522915 1.4565433e-38
2.0883255 -0.51255959 -0.085562527 1.3818456e-39
2.1460512 -0.5489819 -0.070218496 3.4090593e-39
2.2461345 -0.56900793 -0.044053547 6.1749226e-39
2.3396857 -0.57328856 -0.021798482 1.0694665e-38
2.4246864 -0.5893209 -0.011810603 1.1708825e-38
2.0637264 -0.44424981 -0.058611397 5.5316958e-40
2.1246643 -0.47456869 -0.01763767 8.2975646e-40
1.9866416 -0.32185289 -0.073397905 7.3863983e-40
2.0308762 -0.36124286 -0.042192679 5.5352971e-40
1.9863414 -0.27940229 -0.064449698 1.1992579e-39
2.0396848 -0.24098313 -0.0479859 1.6595157e-39
2.1427596 -0.21477322 -0.014922428 3.3172336e-39
2.2100928 -0.2094809 -0.003174406 1.3829302e-39
2.0736864 -0.15046962 -0.068086393 1.1059818e-39
2.1365011 -0.14865471 -0.021425601 2.76442e-39
2.2138727 -0.17220692 -0.0067567239 2.5811119e-39
1.9999454 -0.0020302737 -0.098085694 1.106706e-38
2.0614705 -0.046274234 -0.05508412 2.5814706e-39
2.1115613 -0.083648212 -0.017419707 2.1194107e-39
1.993081 0.069847427 -0.069455884 3.5034227e-39
2.0260022 0.03616615 -0.041090094 3.8707465e-39
2.1275275 0.039186094 -0.0046092081 7.7378692e-39
1.9940535 0.10977518 -0.069494955 3.963682e-39
2.0434756 0.15287831 -0.059234992 5.0682093e-39
2.1392787 0.15648772 -0.0181727 1.7971129e-38
2.2444923 0.17748587 -0.01045477 2.092317e-38
2.3169129 0.19430578 -0.0044377674 2.0643357e-38
2.0877471 0.2109637 -0.078831449 4.2409934e-39
2.1430709 0.25318068 -0.06422168 5.7132073e-39
2.2407866 0.2602796 -0.025300415 1.8711969e-38
2.3407834 0.23954827 -0.0092760632 1.9354444e-38
2.4066174 0.25448948 -0.0034566792 2.0829958e-38
1.4186482 0.37313855 -0.053809006 1.1988991e-39
2.1793187 0.33351892 -0.078229375 5.6224733e-39
2.2283754 0.35770297 -0.060351573 1.5947965e-38
2.3175595 0.39580724 -0.057999898 2.1667412e-38
1.4640712 0.44380552 -0.047757085 5.5389265e-40
1.5056847 0.49329132 -0.068422541 9.2915897e-41
2.2687061 0.41195163 -0.095090918 1.1250036e-38
2.3533707 0.45318925 -0.077791005 2.1207886e-38
2.4458447 0.46321833 -0.05459141 2.2590447e-38
2.5472777 0.47584176 -0.038682181 2.2682644e-38
2.6530256 0.47721291 -0.024820264 2.2682644e-38
2.7375317 0.47615141 -0.015582765 2.2498975e-38
2.846622 0.47815081 -0.013461682 2.2406779e-38
2.9540591 0.47710305 -0.015129661 2.2130194e-38
3.0574384 0.47336295 -0.012869477 2.1854329e-38
3.1415975 0.46712515 -0.0098195169 2.1116766e-38
3.2381096 0.45360166 -0.0081457878 2.1392993e-38
1.2967581 0.57717144 -0.091308303 9.219535e-40
1.3172517 0.55687398 -0.04961092 9.2231083e-40
1.463306 0.5611726 -0.047000974 5.4402498e-39
1.5155758 0.53605044 -0.049976464 5.5425138e-40
2.289269 0.52710748 -0.089155786 2.1391917e-38
2.3532314 0.52548271 -0.075891733 2.185325e-38
2.442615 0.54273659 -0.033531617 2.2130194e-38
2.5427253 0.52285361 -0.018471705 2.2222748e-38
2.6449246 0.51686883 -0.010134202 2.1946882e-38
2.7082982 0.51494843 -0.0038899898 2.1762852e-38
1.2987725 0.6476838 -0.097661607 9.2267236e-40
1.3193338 0.65239096 -0.051591631 9.230325e-40
1.295885 0.75172311 -0.091844298 1.014868e-39
1.3192937 0.74865913 -0.043941792 1.107065e-39
1.3366661 0.84815931 -0.047635388 1.1992607e-39
1.3793113 0.94610953 -0.038938787 1.291815e-39
1.4093064 0.9796719 -0.078539751 1.1074238e-39
1.3865852 1.0608715 -0.045193814 1.3840106e-39
1.4087546 1.0289105 -0.074812338 1.2914549e-39
1.3711518 1.1415012 -0.050241541 1.1996194e-39
1.8362522 -1.6172618 0.042226724 6.5400954e-39
1.8483909 -1.5457374 0.048978686 7.0925447e-39
1.9045217 -1.5027516 0.01316446 2.762978e-39
2.0962572 -1.5006132 0.0075727203 5.432673e-39
2.1469691 -1.5068655 0.011079649 5.2468398e-39
2.2560894 -1.5271868 0.016155448 5.8007324e-39
2.3155892 -1.5564286 0.0078312457 4.9745871e-39
1.8809308 -1.4838933 0.068960197 8.9357258e-39
1.9479461 -1.4514408 0.05113453 5.9862055e-39
2.041023 -1.4353282 0.043212563 1.0870015e-38
2.1503637 -1.4478102 0.031764109 1.0960049e-38
2.2310975 -1.4759973 0.019830123 7.8268573e-39
2.0576811 -1.3487449 0.068459764 6.362953e-39
2.1386042 -1.3437366 0.053894453 1.1704125e-38
2.208441 -1.302241 0.089335032 1.2998841e-38
1.9859855 -1.2124667 0.036582354 6.0841717e-39
2.0526485 -1.2684691 0.040284757 1.0878343e-38
2.1455472 -1.2843844 0.073312655 1.1246764e-38
2.2581718 -1.2745725 0.058122281 1.3275068e-38
2.3455131 -1.2510234 0.048096269 1.3552015e-38
2.4479432 -1.2386245 0.048755951 1.3644208e-38
2.5424829 -1.2331089 0.057548944 1.3552011e-38
2.6432595 -1.2300617 0.065815434 1.3552011e-38
2.7556548 -1.2434405 0.053653732 1.1707376e-38
2.8480229 -1.2482203 0.052812405 8.2024964e-39
1.8980126 -1.1062019 0.011747393 4.7927126e-39
1.9225568 -1.1473987 0.025324404 4.700517e-39
2.0334184 -1.1314757 0.0058799642 7.9284402e-39
2.539583 -1.1853775 0.01357001 1.3275064e-38
2.6424155 -1.1645507 0.0075643659 1.170449e-38
2.765331 -1.1385297 0.0429569 9.4914233e-39
2.8145339 -1.1838801 0.065085076 7.6496813e-39
1.8958061 -1.0881647 0.01275031 4.8849068e-39
1.9188695 -1.0806617 0.0082964115 6.0841675e-39
2.5958943 -1.0025501 0.0018914765 9.7618655e-39
2.6595449 -1.0347686 0.047845379 6.8170452e-39
2.7187359 -1.0838419 0.057765514 9.0304536e-39
2.4995465 -0.90043187 1.5846688e-05 2.4878247e-39
2.5596182 -0.93699116 0.0443197 3.7771201e-39
2.6192527 -0.98331088 0.056669772 5.4359198e-39
2.4635251 -0.84771985 0.025247984 4.9767437e-39
2.527791 -0.84075528 0.071401611 8.848956e-39
2.4486883 -0.75943065 0.011908331 5.8986972e-39
2.5583959 -0.76772648 0.048559926 7.8348054e-39
2.6533923 -0.74837673 0.061175343 7.5589388e-39
2.7225506 -0.72532201 0.081134997 7.3752664e-39
2.4849088 -0.6811744 0.0048937844 1.6503333e-38
2.5530093 -0.65390486 0.017138237 1.2539295e-38
2.6566751 -0.65299934 0.048607968 5.3469766e-39
2.7234752 -0.67835993 0.074857503 7.0990495e-39
2.1964114 -0.50525916 0.00080679444 9.3270426e-41
2.2475166 -0.51459301 0.020672938 2.0272193e-39
2.3501067 -0.53671491 0.031309351 4.0555203e-39
2.4681032 -0.53318006 0.060679745 1.1614818e-38
2.5430653 -0.56569332 0.076207086 8.3840332e-39
2.6184576 -0.59129405 0.088249981 4.334659e-39
2.0856853 -0.4145582 0.011794235 5.5281224e-40
2.1408241 -0.46015257 0.015188849 7.3684197e-40
2.238117 -0.4748387 0.037132021 2.3956402e-39
2.3541865 -0.42625818 0.055066019 2.7658507e-39
2.4718845 -0.45165259 0.077641159 8.3897701e-39
2.5028071 -0.45147318 0.095700145 4.2406178e-39
2.063724 -0.3542062 0.010660712 8.2975506e-40
2.1393721 -0.3595933 0.027891822 1.6595129e-39
2.2626259 -0.33517456 0.033759635 6.1778064e-39
2.357794 -0.34100085 0.06624227 5.7168269e-39
2.4348702 -0.38718221 0.079277143 5.5320797e-39
2.0705569 -0.27450073 0.0045844386 1.3829274e-39
2.1502433 -0.25382134 0.010262177 2.2126867e-39
2.2647321 -0.23777677 0.050058138 3.5959771e-39
2.3225257 -0.28271887 0.078901708 5.8086638e-39
2.1731877 -0.11765213 0.0039403848 4.0544315e-39
2.2644207 -0.16137742 0.02871139 3.2253883e-39
2.343575 -0.14349364 0.072119877 1.4751245e-39
2.1477926 -0.059952188 0.0037944338 1.9328558e-39
2.2552114 -0.057073858 0.012769973 8.2910346e-39
2.3502383 -0.056800179 0.02859121 1.5020532e-38
2.4460006 -0.047393143 0.067505889 1.1340393e-38
2.0938947 0.0900096 0.0020296851 2.3045092e-38
2.1603804 0.068090357 0.006198382 1.5941033e-38
2.2547014 0.060437016 0.015727138 1.2162143e-38
2.3431814 0.04605725 0.026092466 1.1427498e-38
2.455858 0.045557324 0.068011209 7.5603794e-39
2.155462 0.11151434 0.010994954 1.9909766e-38
2.2513318 0.13142334 0.020496411 2.0279334e-38
2.3352134 0.16137041 0.020687819 2.1478971e-38
2.472894 0.11761935 0.073912054 8.6667353e-39
2.5039678 0.13383947 0.088507771 6.7313502e-39
2.3720126 0.20635295 0.0019718444 2.2212886e-38
2.4521017 0.23973744 0.003568639 2.1476788e-38
2.5158038 0.24607773 0.0093936026 2.138714e-38
1.4329114 0.3838321 0.04162946 2.6743865e-39
1.4668303 0.44839051 0.04974851 7.3828531e-40
2.8442531 0.49972415 1.8032066e-05 2.1854687e-38
2.9497516 0.49909076 1.870091e-05 2.2223108e-38
3.061861 0.4953604 0.0012929991 2.222311e-38
3.159128 0.4886753 0.0034499778 2.1762493e-38
3.2547991 0.47901896 0.0073834942 2.1393353e-38
3.3487027 0.47542515 0.015716996 2.1392993e-38
3.4504848 0.474765 0.025660675 2.1393355e-38
3.5511663 0.48253882 0.043758083 2.1301519e-38
3.6505847 0.48839134 0.066008478 2.1393355e-38
3.7476585 0.4901081 0.076581635 2.1301162e-38
3.8491113 0.49094537 0.078772254 2.1300802e-38
3.9398961 0.49618709 0.088135861 2.1208607e-38
4.8392634 0.49306944 0.093133748 1.3276545e-38
1.3360029 0.57051384 0.03187824 1.2918164e-39
1.4669237 0.5597437 0.028995477 2.8591407e-39
1.5113668 0.54558843 0.052895412 1.1077881e-39
2.4872687 0.58728546 0.0018149733 2.1485549e-38
2.5493176 0.5742265 0.01029472 2.1485908e-38
2.6466007 0.5647198 0.018152907 2.1486266e-38
2.7512407 0.55330157 0.019062331 2.1578461e-38
2.848834 0.55400091 0.025145868 2.1578818e-38
2.9518147 0.55147302 0.027281826 2.1578818e-38
3.0493572 0.54762608 0.030820087 2.1578818e-38
3.1502273 0.55022693 0.039442316 2.1670653e-38
3.2516565 0.54617721 0.045798831 2.1762489e-38
3.3493135 0.54553467 0.056228191 2.1762849e-38
3.4506805 0.54484397 0.067254461 2.1854684e-38
3.5525916 0.54170829 0.080384135 2.1854684e-38
3.6391547 0.51673293 0.087549955 2.1762133e-38
3.9781461 0.50100422 0.097590297 2.1300443e-38
4.8471956 0.53588384 0.091176964 1.300068e-38
1.349241 0.65060574 0.03554441 1.1074266e-39
1.4385778 0.65964943 0.070019223 1.9382788e-39
1.5376318 0.61418527 0.082139872 2.1226659e-39
2.4924083 0.60154808 0.0054139658 2.148483e-38
2.5594988 0.61005563 0.021949397 2.13008e-38
2.6517539 0.61999047 0.039412264 2.1485908e-38
2.7497861 0.63317037 0.054373719 2.1301876e-38
2.8507142 0.64796579 0.067117728 2.1578102e-38
2.9470878 0.65169138 0.074567154 2.1762492e-38
3.0494182 0.64431781 0.075195625 2.1762849e-38
3.1496003 0.64681357 0.081827536 2.2039074e-38
3.2481704 0.62906033 0.084186807 2.2038714e-38
3.3437176 0.62149298 0.092838056 2.1946879e-38
3.4444103 0.60653508 0.09551882 2.2314941e-38
3.5165367 0.60266846 0.096412629 2.213055e-38
1.361419 0.74705744 0.036396731 1.5684075e-39
1.4242435 0.75880235 0.081465602 4.9847101e-39
1.5149649 0.76939309 0.097225375 8.131295e-39
2.9692285 0.70932549 0.09468364 2.1578102e-38
3.0133305 0.70770234 0.096740618 2.1670297e-38
1.3581822 0.84923649 0.026393106 1.291815e-39
1.4475477 0.84961039 0.074186169 2.4900023e-39
1.5118392 0.88444197 0.094142266 9.2267657e-40
1.3561627 0.95209688 0.031574257 1.4762077e-39
1.4424844 0.9653064 0.072691627 1.6602416e-39
1.5190558 0.95740652 0.089187853 1.0148722e-39
1.3686458 1.0473472 0.051608957 1.3840106e-39
1.4369365 1.0118474 0.09418989 1.1992635e-39
1.3835469 1.1461557 0.043819785 1.4762077e-39
1.4027553 1.1892302 0.082630314 1.1992635e-39
1.3943746 1.2083019 0.03756104 1.8446301e-39
1.4067678 1.2140663 0.072421476 1.1992621e-39
1.8197458 -1.610324 0.15020694 1.3458007e-38
1.8303903 -1.5443753 0.14965297 1.3827156e-38
1.8779669 -1.4865263 0.15156971 7.7462308e-39
1.9452882 -1.4378796 0.14887023 3.8711529e-39
2.0026011 -1.4003463 0.11557636 3.9676757e-39
1.9932715 -1.3951756 0.17271273 3.6929035e-39
2.0428209 -1.3572456 0.14758901 4.1546103e-39
2.1611543 -1.3307737 0.14631158 1.0787599e-38
2.2401438 -1.3206441 0.15635924 1.1523351e-38
2.3445258 -1.3210835 0.17611133 1.0323726e-38
2.448627 -1.3177352 0.18547826 9.4932408e-39
2.5478663 -1.3138255 0.18536539 9.5857937e-39
2.6471133 -1.3127004 0.18668282 9.3092083e-39
2.7535124 -1.3113096 0.18514362 9.1240981e-39
2.8057444 -1.302423 0.18570676 8.6627612e-39
2.269695 -1.2905148 0.11798811 1.3828242e-38
2.3509178 -1.2772713 0.12812544 1.3735687e-38
2.4470036 -1.2699475 0.13512294 1.3366902e-38
2.5531809 -1.2683848 0.13411082 1.3182869e-38
2.6458945 -1.2609054 0.13260302 1.3090314e-38
2.7500548 -1.2654989 0.13728623 1.2628617e-38
2.8413718 -1.2527429 0.15522803 8.3876177e-39
2.7755151 -1.1337085 0.15452856 7.372384e-39
2.81164 -1.1843171 0.14768384 7.097239e-39
2.6791523 -1.0232049 0.13179132 6.6322966e-39
2.7356286 -1.0621829 0.16030304 8.3818499e-39
2.5879364 -0.92031252 0.10880715 3.0395593e-39
2.6516562 -0.95346481 0.14181136 5.2486475e-39
2.7420249 -0.93996137 0.18414572 7.5481194e-39
2.5576448 -0.85463923 0.11067793 9.4939681e-39
2.6518533 -0.85747296 0.12784195 5.989095e-39
2.7525668 -0.8673383 0.15208353 5.4312339e-39
2.8547535 -0.85616606 0.16298504 6.9999889e-39
2.9317775 -0.82567972 0.17513642 7.5542361e-39
2.5927751 -0.79561335 0.10100993 8.9400712e-39
2.6492434 -0.79002178 0.10510977 8.7567617e-39
2.7628098 -0.75735152 0.10763875 8.2964997e-39
2.8504508 -0.74699628 0.12371981 6.5426205e-39
2.960916 -0.75976521 0.16456096 7.0028686e-39
3.005913 -0.75853759 0.19247024 7.463481e-39
2.6789036 -0.6129427 0.12367146 2.121238e-39
2.7515609 -0.64136022 0.14349468 2.1197932e-39
2.8416841 -0.67632866 0.15583956 3.593117e-39
2.9162617 -0.69293523 0.18795425 4.6990904e-39
2.4957836 -0.50461417 0.10723711 1.7701153e-38
2.5448341 -0.53320992 0.15087619 9.7716283e-39
2.6334543 -0.58436036 0.151254 5.2562341e-39
2.4910641 -0.44909245 0.12337657 9.9570916e-39
2.5089767 -0.45173082 0.1552783 6.6376944e-39
2.2853537 -0.3050302 0.17371257 3.5037815e-39
2.360806 -0.32605207 0.14359544 6.7309816e-39
2.4446843 -0.37345484 0.14952895 4.517932e-39
2.1958687 -0.25158855 0.19687387 6.4536661e-40
2.2523451 -0.259397 0.14734332 2.1208512e-39
2.3234813 -0.23948088 0.13029295 5.6246397e-39
2.4571207 -0.23593338 0.17946161 1.4844543e-38
2.5335686 -0.22361922 0.19106878 1.5674302e-38
2.3550375 -0.1559433 0.12475578 1.6595185e-39
2.445523 -0.1389274 0.15714975 8.6678087e-39
2.5216684 -0.14589494 0.18675628 1.5582468e-38
2.459245 -0.050658751 0.15001255 1.0326967e-38
2.5009141 -0.099954151 0.1768063 1.5858695e-38
2.4790161 0.034688693 0.13696785 7.929522e-39
2.5112576 0.069797225 0.16775106 1.5766497e-38
2.4950929 0.10590813 0.10305544 8.57489e-39
2.537698 0.12005251 0.15128882 9.0358682e-39
1.3968232 0.39892343 0.19077267 2.4900023e-39
1.4206032 0.39165968 0.13916133 6.4547703e-39
1.3988577 0.4019435 0.19273497 1.568046e-39
1.4439301 0.44441581 0.14580721 1.5680488e-39
3.7670164 0.49795139 0.10510314 2.1670299e-38
3.8561778 0.49785328 0.10682551 2.1577386e-38
3.9160838 0.49883777 0.11019723 2.1392994e-38
4.8494906 0.4970406 0.11021406 1.3184709e-38
4.95438 0.44921175 0.17300135 1.2724809e-38
5.046771 0.47500345 0.16329858 1.2908121e-38
5.1044474 0.49556985 0.16278066 1.3000318e-38
1.4929516 0.50789195 0.14717951 2.6747579e-39
1.5312376 0.55232489 0.13237879 2.8595079e-39
3.5717857 0.5855884 0.10612138 2.231494e-38
3.6511855 0.56572759 0.11371575 2.2222744e-38
3.7491863 0.54577267 0.12053347 2.2130551e-38
3.8515019 0.54115117 0.13896625 2.2038357e-38
3.9490368 0.54760391 0.15519632 2.2222389e-38
4.0470567 0.56747794 0.18145095 2.2406779e-38
4.1322517 0.56287736 0.19415903 2.2314585e-38
4.7749658 0.5656032 0.12272827 1.3278346e-38
4.8493299 0.54092389 0.13009667 1.318543e-38
4.9438639 0.53927332 0.15393624 1.3184711e-38
5.0454078 0.54685354 0.16341527 1.3276905e-38
5.144134 0.52502471 0.16381317 1.3092514e-38
5.2516732 0.54846585 0.18367746 1.3368742e-38
5.3101172 0.55639458 0.19665949 1.3460577e-38
1.5815618 0.62430322 0.11684158 3.229375e-39
1.6192058 0.6533584 0.13756266 3.0453467e-39
3.0535259 0.69434428 0.10282005 2.1578102e-38
3.178972 0.68092108 0.1018201 2.1854684e-38
3.2469313 0.68206018 0.10845629 2.194688e-38
3.3617291 0.66811848 0.11425893 2.213127e-38
3.4503355 0.65595621 0.1241249 2.2131269e-38
3.5519049 0.6500504 0.13592502 2.2223104e-38
3.6484118 0.65020823 0.15371917 2.2407135e-38
3.7479548 0.64909792 0.16790299 2.2498972e-38
3.8539958 0.64070696 0.17591362 2.2590808e-38
3.9461889 0.62784946 0.18471715 2.2683003e-38
4.0370145 0.61437482 0.19339064 2.2591166e-38
5.0992908 0.60541749 0.17658965 1.2817367e-38
5.1645365 0.61316383 0.18629982 1.3001398e-38
5.2049565 0.61796272 0.19526687 1.3277983e-38
5.3404393 0.64175248 0.19264515 1.2909203e-38
1.3947309 0.74677855 0.10644496 4.6424878e-40
1.4349673 0.78081864 0.11395834 7.3937692e-40
1.5675114 0.78648239 0.10947808 8.4997174e-39
1.6470245 0.76895833 0.12606518 8.5893823e-39
1.7231137 0.78641033 0.14936629 9.2333083e-39
2.9986396 0.71940202 0.10384361 2.1578102e-38
3.0566435 0.72176075 0.10807428 2.1578102e-38
3.1529195 0.73810631 0.12088542 2.1669937e-38
3.2549005 0.75218493 0.13403577 2.1762132e-38
3.3481531 0.74917376 0.14738582 2.1854686e-38
3.4516304 0.75254214 0.1624465 2.194688e-38
3.5480492 0.75263929 0.17692734 2.1854684e-38
3.641505 0.73394948 0.18790163 2.2039074e-38
3.7131166 0.70598602 0.19822417 2.2314941e-38
1.48037 0.82734925 0.11682141 9.230409e-40
1.5243948 0.86464846 0.11771637 2.1241106e-39
1.6407547 0.81964123 0.13433485 9.328755e-39
1.7325909 0.80511469 0.155975 8.9581662e-39
3.2827981 0.80718559 0.13671024 2.1669217e-38
3.3623838 0.82446843 0.16747442 2.1853967e-38
3.4330873 0.83022189 0.19004354 2.1762132e-38
1.483271 0.99889064 0.10226592 1.1992649e-39
1.5473093 0.95889431 0.1188148 1.107428e-39
1.3773597 1.0549636 0.1041749 1.1074294e-39
1.4583064 1.020083 0.11059058 1.1992663e-39
1.5385048 1.0212861 0.12744811 1.4762147e-39
1.3900084 1.1332802 0.10484541 1.3843764e-39
1.4075737 1.1707612 0.11159093 1.9375516e-39
1.4278266 1.2281553 0.11858197 3.5974274e-39
1.5642712 1.3515755 0.16107287 7.0101035e-39
1.6063834 1.3913344 0.17415641 6.9175505e-39
1.6391368 1.4311371 0.17794561 7.0093818e-39
1.958005 -1.724647 0.27152503 2.7636983e-39
1.8608512 -1.624699 0.21775107 8.1117665e-39
1.9310331 -1.6523014 0.2648879 2.1197736e-39
1.8663712 -1.5384433 0.24457937 5.4424372e-39
1.9046024 -1.5931512 0.2693488 1.3836575e-39
1.8754644 -1.4683309 0.25146553 5.1680196e-39
1.9337808 -1.4260134 0.24609065 3.2319197e-39
2.3676751 -1.406343 0.26978603 6.172759e-39
2.4502666 -1.409367 0.2719596 6.5408142e-39
1.9837797 -1.3861325 0.25485271 4.3342778e-39
2.0350845 -1.3480798 0.25019297 4.4279154e-39
2.1454704 -1.35088 0.24973318 4.4275608e-39
2.2494316 -1.3767928 0.24714361 5.1618623e-39
2.3419874 -1.3887192 0.23299992 5.713227e-39
2.4592946 -1.3829702 0.22799538 6.1731191e-39
2.5496733 -1.3641853 0.25546271 7.0017868e-39
2.6425107 -1.3209705 0.2505931 7.4620418e-39
2.7359722 -1.3087832 0.21812294 6.6330112e-39
2.6890593 -1.2965432 0.28508595 7.8293824e-39
2.7599857 -1.2833465 0.26064733 7.3691259e-39
2.8156078 -1.240743 0.24461471 7.3687686e-39
2.7959509 -1.1168022 0.23280068 8.0108926e-39
2.8077238 -1.1606842 0.25600347 8.4729484e-39
2.7765787 -1.0478081 0.25057992 8.9328447e-39
2.7836375 -0.96553123 0.24166965 9.0257606e-39
2.8120131 -0.92296666 0.2635071 8.9346454e-39
2.856657 -0.88091034 0.24799974 8.2910766e-39
2.9526768 -0.83861923 0.24903013 8.01521e-39
3.0085816 -0.80776197 0.27396339 7.7389833e-39
2.9873619 -0.74315721 0.2191295 6.5415261e-39
3.0365884 -0.76123005 0.25315425 7.1865325e-39
2.7560561 -0.61571848 0.25285175 7.8344299e-39
2.8530917 -0.64993113 0.24905092 7.0043105e-39
2.9465029 -0.68504798 0.24875475 5.5280986e-39
2.5714433 -0.52286392 0.23897523 1.0692839e-38
2.6407578 -0.56288332 0.26333836 8.480158e-39
2.7082493 -0.59706044 0.27657494 7.3741762e-39
2.499579 -0.40280887 0.21277304 1.8435427e-39
2.5353668 -0.45002085 0.24968593 7.9277143e-39
2.2775788 -0.30530864 0.22346546 8.1139175e-39
2.3568337 -0.32862514 0.23896267 1.3829314e-38
2.460223 -0.36788726 0.2576184 8.1099448e-39
2.5023015 -0.39329681 0.24130253 1.8431825e-39
2.1927059 -0.25039479 0.24398263 2.213044e-39
2.226738 -0.25130105 0.25272468 3.3193916e-39
2.3504555 -0.24172655 0.26515886 1.4199182e-38
2.4709275 -0.24377114 0.24376895 1.4844547e-38
2.5229475 -0.22192383 0.24228437 1.5674305e-38
2.2849746 -0.19647188 0.28450233 2.3970808e-39
2.362051 -0.14653325 0.29017088 4.6101332e-39
2.4552026 -0.13616835 0.28006399 1.4752357e-38
2.525821 -0.1564218 0.24471827 1.5766504e-38
2.3937612 -0.08192347 0.27438971 2.1208512e-39
2.4368978 -0.051635139 0.23571311 7.4685481e-39
2.5426936 -0.016061971 0.28125942 1.6688453e-38
2.4772251 0.0082311202 0.21332899 1.3738201e-38
2.5453088 0.051651295 0.25299606 1.6872843e-38
2.5818062 0.12734218 0.25387955 1.1340755e-38
2.6383221 0.17496742 0.27642179 7.1001299e-39
2.7394657 0.19181168 0.27323642 3.9658428e-39
2.832551 0.19531968 0.26562393 2.952051e-39
2.6629229 0.20501734 0.2940062 4.0587629e-39
2.735811 0.20746285 0.27712867 3.2290022e-39
2.842696 0.20542362 0.26982778 4.0584014e-39
2.9084291 0.20893422 0.26855487 4.5193781e-39
1.4047565 0.41301262 0.20064127 1.937197e-39
4.9709625 0.44533682 0.20655629 1.2817002e-38
5.0494843 0.46841517 0.212613 1.2908478e-38
5.1265283 0.48906389 0.2194608 1.2631533e-38
5.253005 0.49105608 0.23496103 1.1432994e-38
5.3393426 0.49526617 0.24652566 1.1340431e-38
4.1639128 0.59043795 0.20755202 2.2314942e-38
4.2422633 0.57985055 0.21670513 2.2222391e-38
4.3416262 0.5855937 0.23115225 2.2222392e-38
4.4427152 0.59043926 0.23820597 2.2038004e-38
4.5979815 0.59896576 0.23882921 2.176106e-38
5.161695 0.53489584 0.2119883 1.2999598e-38
5.2508516 0.54966116 0.22002946 1.3091792e-38
5.3341846 0.55451715 0.22982897 1.4013387e-38
5.4546785 0.5413788 0.25873652 1.6595582e-38
5.5427971 0.56876403 0.25992733 1.5212647e-38
5.6441913 0.57102746 0.27553642 1.2077276e-38
5.740881 0.58426416 0.28994101 7.3749357e-39
5.8187647 0.53554142 0.29384488 2.2219877e-38
3.7767897 0.69221693 0.20503779 2.2314941e-38
3.8563883 0.68698388 0.21791644 2.2314582e-38
3.9487507 0.67522228 0.23090349 2.2406416e-38
4.0524077 0.66603458 0.25099441 2.2590808e-38
4.146842 0.64325052 0.25357333 2.2498972e-38
4.2471271 0.62482244 0.26868054 2.2314581e-38
4.3405199 0.60900176 0.27242616 2.2314942e-38
4.4435568 0.60767692 0.2711699 2.2314586e-38
4.533525 0.61236566 0.27471963 2.2130557e-38
4.6367631 0.61963028 0.27655348 2.1854331e-38
4.7397342 0.62600213 0.2753244 2.1485552e-38
4.8517318 0.6366902 0.27769604 2.1485552e-38
4.9327831 0.64257944 0.27756858 2.1208968e-38
5.0378971 0.65627235 0.29075134 2.102422e-38
5.1689982 0.6062364 0.20137499 1.3369101e-38
5.2341409 0.61892343 0.20894559 1.3092871e-38
5.3375111 0.66255444 0.24832159 1.6044572e-38
5.4269352 0.63258034 0.24534433 1.4475088e-38
5.5608997 0.61609828 0.24873281 1.2631174e-38
5.6703863 0.65518183 0.25527108 1.6226806e-38
5.768466 0.63657218 0.27690354 1.327582e-38
5.8388462 0.66606677 0.28550264 9.7723892e-39
5.9127102 0.67213726 0.28152898 1.2354226e-38
3.5766737 0.79284763 0.20548634 2.1301512e-38
3.6675229 0.77023828 0.21236873 2.1854684e-38
3.7476408 0.74707979 0.23177676 2.213055e-38
3.8477905 0.74384087 0.26586679 2.2590447e-38
3.9351935 0.72516191 0.28355092 2.2774839e-38
4.019773 0.70340985 0.29231414 2.2682643e-38
5.5667973 0.70107764 0.29316878 1.5952019e-38
5.7519279 0.71053821 0.284897 1.3922999e-38
5.8067775 0.71035647 0.28486922 1.2540423e-38
3.4722061 0.83787721 0.20896836 2.1762849e-38
3.5488088 0.84647363 0.22903365 2.1763209e-38
3.6482382 0.84718323 0.25407979 2.1855405e-38
3.7471731 0.84387016 0.27316311 2.194688e-38
3.84095 0.82814467 0.28842044 2.2039074e-38
3.5857337 0.90163547 0.23798087 2.2039074e-38
3.6564384 0.91190195 0.26466659 2.2039433e-38
3.7389553 0.9285962 0.29104173 2.2039436e-38
3.804132 0.96752799 0.29363763 2.2039434e-38
1.9428923 -1.7167535 0.33197281 5.0656925e-39
1.7991927 -1.6007332 0.3841643 1.5938222e-38
1.8539556 -1.622622 0.37941626 6.1687835e-39
1.9291339 -1.6579007 0.33818147 4.3295708e-39
1.7932605 -1.584505 0.37336946 1.7963263e-38
1.8603196 -1.5435611 0.35797474 7.2816373e-39
1.9046263 -1.5927149 0.33106038 1.7509897e-39
1.8784044 -1.4718852 0.34492171 5.2613096e-39
1.9407239 -1.4281873 0.35283834 3.8794696e-39
2.0017791 -1.4012148 0.39854169 5.2638305e-39
2.3726356 -1.403827 0.3225826 6.4489815e-39
2.4494157 -1.4059126 0.32628635 6.9092338e-39
1.9866101 -1.390029 0.3304435 5.1694839e-39
2.0403094 -1.3492534 0.352943 4.1564194e-39
2.1423261 -1.3356439 0.34722972 4.5201236e-39
2.2525883 -1.3721155 0.35029662 5.8990602e-39
2.345691 -1.3885604 0.36395842 6.7259243e-39
2.4626687 -1.3859235 0.37366733 7.2783708e-39
2.5503783 -1.3573179 0.34931326 7.5545962e-39
2.6186469 -1.3151644 0.33835527 7.9226571e-39
2.6563604 -1.2844411 0.35867721 7.8304614e-39
2.7596726 -1.253282 0.35233855 7.5535144e-39
2.8049407 -1.2177793 0.32560048 7.553513e-39
2.7932935 -1.1875812 0.39036152 7.64571e-39
2.8124385 -1.1502895 0.34890637 8.2899962e-39
2.7938063 -1.0364513 0.33801958 8.8420896e-39
2.8046944 -1.0607761 0.36461878 8.4740288e-39
2.7959709 -0.99130565 0.312572 8.9350041e-39
2.8271656 -0.94799566 0.35238138 8.5676607e-39
2.8736432 -0.88277912 0.34730724 8.475828e-39
2.9508133 -0.84715396 0.35007232 8.3843513e-39
3.0177386 -0.8126961 0.35358182 8.1996027e-39
3.0671418 -0.76183647 0.34704685 7.0014252e-39
3.1068246 -0.75349635 0.38131139 7.2780163e-39
2.7656324 -0.61293274 0.33120608 3.9633135e-39
2.8538346 -0.63134122 0.35860887 4.9767367e-39
2.9510593 -0.67334455 0.35267857 5.9898054e-39
3.0138016 -0.69437462 0.3763428 5.989804e-39
2.5999899 -0.50151014 0.30384001 1.0134275e-39
2.6544793 -0.53630328 0.32919881 2.211965e-39
2.7377505 -0.56301093 0.35754463 3.9633135e-39
2.8329985 -0.57643342 0.38773099 6.7284495e-39
2.5593016 -0.44775191 0.3247748 5.3458864e-39
2.6324952 -0.45773852 0.375783 1.0970163e-38
2.7104683 -0.41838902 0.39093846 1.3736394e-38
2.4728467 -0.36645249 0.31001741 1.032336e-38
2.5435941 -0.36360288 0.32928586 1.0325885e-38
2.662775 -0.3478297 0.36892006 1.4290649e-38
2.7075186 -0.34574601 0.39224887 1.4382486e-38
2.2714903 -0.21153018 0.30542049 3.227196e-39
2.3406525 -0.21419989 0.31888106 5.0711114e-39
2.4436994 -0.20343046 0.34198251 6.1785351e-39
2.5492809 -0.20481093 0.36230111 1.4568325e-38
2.6757898 -0.23836392 0.38346457 1.5120773e-38
2.7104242 -0.26544949 0.39281732 1.4751629e-38
2.3592448 -0.15515068 0.31266347 2.4896379e-39
2.4397254 -0.13784926 0.32952231 4.7948804e-39
2.5475085 -0.1422033 0.3490904 1.5859064e-38
2.6602283 -0.13102694 0.37058705 1.7610412e-38
2.7315483 -0.12934521 0.39015058 1.6965041e-38
2.3945777 -0.096854396 0.30286691 2.3981556e-39
2.4500098 -0.07927037 0.30960166 8.5752544e-39
2.5733526 -0.036899142 0.31722516 1.6227119e-38
2.6391828 -0.045926616 0.36617684 1.7701887e-38
2.581002 0.057499934 0.34211338 1.7056875e-38
2.6161773 0.025198093 0.37870017 1.7978473e-38
2.5908923 0.15468206 0.34388298 1.0603553e-38
2.6056473 0.14582436 0.35979679 1.189393e-38
2.5605667 0.21067339 0.36265934 3.5052332e-39
2.6227822 0.20659307 0.30909437 3.59671e-39
5.7938781 0.56250376 0.30094671 1.2077277e-38
5.8304353 0.56512374 0.35090503 1.5581436e-38
4.0873652 0.69164717 0.30665538 2.2682643e-38
4.1611056 0.67966485 0.32060194 2.2774479e-38
4.2571096 0.66345376 0.34216809 2.2590449e-38
4.3437166 0.64047611 0.36408252 2.2682644e-38
4.4499559 0.61917073 0.35189942 2.2498615e-38
4.555707 0.62521988 0.35495678 2.2406421e-38
4.6590166 0.63244677 0.32667282 2.2130198e-38
4.739408 0.64321357 0.36316761 2.2129478e-38
4.853446 0.65044844 0.33054087 2.1484833e-38
4.9515944 0.66286844 0.357099 2.157631e-38
5.0555615 0.67316037 0.35744926 2.1207886e-38
5.163249 0.68302548 0.35761279 2.1023494e-38
5.2840376 0.69595945 0.33926374 1.8718611e-38
5.3302565 0.69435716 0.32300374 1.9917873e-38
5.4326253 0.69985497 0.31353223 1.9180306e-38
5.792285 0.62216491 0.31318322 7.4649706e-39
5.8219171 0.65317488 0.35512066 7.7430022e-39
3.9664695 0.76468235 0.31855652 2.2866676e-38
4.0476751 0.7524668 0.35020125 2.277484e-38
4.1491456 0.7294057 0.36743763 2.277484e-38
4.2220497 0.7102831 0.38548324 2.277484e-38
5.3572412 0.70560116 0.37493777 1.8902999e-38
5.4736915 0.71304202 0.33959234 1.871933e-38
5.5631862 0.71400911 0.34122491 1.6690304e-38
5.660347 0.72685605 0.34769392 1.5768349e-38
5.7597384 0.72902507 0.3424978 1.447725e-38
5.8358269 0.71959674 0.35913637 1.2263836e-38
3.7804284 0.88948154 0.30434608 2.1854686e-38
3.8608379 0.87044179 0.3120693 2.194688e-38
3.9533367 0.84778941 0.33042437 2.2223107e-38
4.0509043 0.8483718 0.37120065 2.2407138e-38
4.1046615 0.8584252 0.39578998 2.2130913e-38
3.780478 0.92516518 0.30804774 2.2039077e-38
3.8489277 0.95988017 0.33755046 2.222275e-38
3.9533262 0.95498496 0.36739227 2.1762136e-38
4.0283842 0.93524438 0.38782164 2.1854331e-38
3.8679078 1.0079225 0.38042071 2.2129838e-38
3.9262288 1.0104567 0.39425954 2.1761777e-38
1.865132 -1.6256472 0.45203826 6.7259243e-39
1.8853525 -1.5591363 0.43915811 5.4413512e-39
1.9290025 -1.5375962 0.48151544 1.2723707e-38
1.8902789 -1.4910893 0.41248497 7.1992325e-39
1.9553494 -1.4672569 0.4350155 5.6315397e-39
2.0295279 -1.4330242 0.46368185 1.2172348e-38
2.1072824 -1.4036207 0.49858928 1.4566161e-38
2.0686383 -1.3626766 0.4356761 6.8275549e-39
2.1269848 -1.3376282 0.45611489 1.032699e-38
2.25946 -1.3636475 0.45416495 6.9117589e-39
2.348278 -1.3669474 0.45015422 7.2787324e-39
2.4532259 -1.3577008 0.44954157 7.4627607e-39
2.5414953 -1.3218571 0.44491354 7.6467876e-39
2.6010575 -1.3009875 0.40340412 7.8304614e-39
2.5864055 -1.2863705 0.46488255 7.6464289e-39
2.6474624 -1.2597018 0.45031255 7.5538759e-39
2.7329886 -1.2249016 0.44256786 7.3694847e-39
2.7753532 -1.1618761 0.45970654 7.4613202e-39
2.803968 -1.1247824 0.42722207 7.8297398e-39
2.7961912 -1.0719842 0.48759905 7.2769303e-39
2.8059785 -1.0470678 0.44661623 7.6460688e-39
2.8426661 -0.9503178 0.45052433 7.8308202e-39
2.8860152 -0.88824457 0.44890514 7.9237375e-39
2.9506128 -0.85052055 0.45472378 7.7397063e-39
3.0226629 -0.81458545 0.4407264 7.8315432e-39
3.0684791 -0.76142615 0.45662948 6.5411687e-39
3.1105275 -0.7544474 0.43667227 6.8170382e-39
2.8887963 -0.6090405 0.43680203 6.4507766e-39
2.9390562 -0.64569992 0.45530516 7.2798142e-39
3.0201807 -0.69111121 0.44853354 7.1868997e-39
2.6861496 -0.5054186 0.42663014 8.7574666e-39
2.7481041 -0.52524281 0.45190233 7.9269899e-39
2.852433 -0.57522488 0.45163232 7.188706e-39
2.6597595 -0.46786559 0.43883148 1.0232595e-38
2.7452424 -0.43151996 0.45521516 1.2998827e-38
2.6934619 -0.35907122 0.40860096 1.4198095e-38
2.7447796 -0.34859878 0.44720632 1.4474682e-38
2.8079097 -0.33142829 0.49523377 1.4198454e-38
2.7696242 -0.26389611 0.43252373 1.5304801e-38
2.8342669 -0.23864596 0.47262973 1.5950529e-38
2.7727702 -0.14184594 0.44189703 1.6595899e-38
2.8167307 -0.17478718 0.48020965 1.6319313e-38
2.6709905 -0.039898556 0.4385494 1.7610052e-38
2.7189729 -0.071203142 0.47610292 1.6964685e-38
2.5992894 0.066734143 0.40125546 1.7149071e-38
2.627352 0.050661724 0.45058957 1.7609689e-38
2.5942411 0.17984466 0.45245829 1.0603555e-38
2.6048295 0.1423274 0.44955838 1.4106619e-38
2.5776432 0.21694663 0.45447922 5.0725533e-39
4.9653268 0.53640717 0.49367765 1.3460935e-38
5.0390968 0.5570814 0.49012399 1.3737163e-38
5.1541939 0.56725502 0.49161243 1.3553132e-38
5.2858939 0.59706903 0.49570793 1.3737885e-38
5.3328509 0.57153594 0.49855369 1.3184711e-38
5.7597184 0.57513165 0.45447996 1.1987615e-38
5.822485 0.57047844 0.41797921 1.3554219e-38
4.2890272 0.69793487 0.40222239 2.2775199e-38
4.3644252 0.67442638 0.41851327 2.2774842e-38
4.4484 0.65898037 0.4459289 2.2499335e-38
4.5377536 0.65780181 0.47244394 2.222347e-38
4.6515012 0.64071566 0.44417417 2.2222029e-38
4.7480354 0.65427774 0.46204287 2.1945447e-38
4.8692293 0.66474682 0.47539997 2.157594e-38
4.9869289 0.67481601 0.44972309 2.1207163e-38
5.0400777 0.67836982 0.4290303 2.0930936e-38
5.1719613 0.63266069 0.49372983 1.5120813e-38
5.2368832 0.65906185 0.48119548 1.4568001e-38
5.3436065 0.66387284 0.48638061 1.4291774e-38
5.4471817 0.67623162 0.4852758 1.5582516e-38
5.5295792 0.66851944 0.49261731 1.7149484e-38
5.6048422 0.68161124 0.49327517 1.9454014e-38
5.7761965 0.62569106 0.49333948 7.4689404e-39
5.8384061 0.65121287 0.44903514 6.639184e-39
4.0950556 0.79486793 0.40323287 2.2407137e-38
4.1568513 0.78058302 0.42548195 2.2223466e-38
4.2548971 0.7581647 0.44574463 2.2315304e-38
4.3439407 0.73741972 0.46683067 2.2315664e-38
4.4356494 0.71452498 0.48353732 2.2315665e-38
5.2048154 0.70054269 0.49561325 2.0007894e-38
5.3477545 0.7043516 0.48990166 1.5674707e-38
5.4375033 0.71380377 0.4457334 1.7150561e-38
5.5567393 0.72531068 0.44236681 1.6043854e-38
5.6621509 0.72644037 0.47674033 1.3554931e-38
5.7544065 0.73119056 0.45514491 1.2816291e-38
5.8484674 0.71965104 0.44529483 8.9444348e-39
4.0922003 0.86292392 0.40516621 2.2131273e-38
4.1375928 0.85187864 0.45257223 2.2223468e-38
4.2057304 0.80270123 0.49452692 2.2223471e-38
3.9903533 0.99761391 0.40645701 2.1485552e-38
4.0559835 0.95124638 0.44470137 2.1669941e-38
4.1121988 0.91894674 0.48198619 2.185469e-38
3.9743121 1.0207076 0.4170548 2.1484831e-38
4.04252 1.0362499 0.46527255 2.1208609e-38
4.7578478 2.4248028 0.49764663 7.9458275e-39
4.8102398 2.4343786 0.49620542 7.7614363e-39
1.9609408 -1.7184112 0.57896316 6.8177556e-39
2.0170677 -1.707644 0.59456277 6.1723904e-39
1.8853146 -1.6374992 0.51598966 1.0321551e-38
1.9417371 -1.6582583 0.54929578 8.0170205e-39
2.0561504 -1.6635001 0.57705009 6.7262859e-39
2.1334677 -1.627514 0.5843749 6.1727548e-39
1.8909211 -1.5883751 0.51104271 1.5579234e-38
1.9436889 -1.550764 0.51317096 1.733131e-38
2.0432842 -1.5454251 0.53161275 8.1099518e-39
2.1686001 -1.5666472 0.56973302 6.5411772e-39
2.227145 -1.5273367 0.57808906 5.8958091e-39
1.9974507 -1.4990427 0.50286037 1.8069608e-38
2.0471287 -1.4702291 0.50839412 1.539449e-38
2.1476307 -1.4491462 0.52000928 6.9117617e-39
2.2681539 -1.452759 0.5655601 5.8958077e-39
2.3070366 -1.409358 0.57578331 5.342634e-39
2.1679287 -1.3870331 0.50581598 7.0954313e-39
2.2694099 -1.380879 0.5156725 7.0025098e-39
2.3503923 -1.3655484 0.55503368 5.803968e-39
2.4359314 -1.3261658 0.54472125 6.1723876e-39
2.5216672 -1.3095064 0.51334262 7.4623978e-39
2.47276 -1.279359 0.57155895 5.342271e-39
2.5496891 -1.2467058 0.54981351 5.9869188e-39
2.644202 -1.2266256 0.51875305 6.8166766e-39
2.7090499 -1.2068546 0.50640798 7.2772918e-39
2.5883806 -1.1885269 0.57987523 5.4326688e-39
2.6476393 -1.1482978 0.55738324 5.5252232e-39
2.7347815 -1.1435144 0.5136804 6.7241209e-39
2.6860707 -1.0835476 0.57476091 5.3404718e-39
2.742671 -1.0440104 0.54478502 5.6177747e-39
2.8049026 -1.0092125 0.50300026 6.1705884e-39
2.7763329 -0.97111976 0.56246901 5.7092501e-39
2.8257039 -0.93209481 0.53880888 6.0783913e-39
2.8659151 -0.87197268 0.55932575 6.4471696e-39
2.9487004 -0.83038598 0.54707772 6.8173899e-39
2.8601739 -0.75213766 0.59682131 1.179521e-38
2.9786015 -0.77271158 0.57680589 6.7244712e-39
3.0437024 -0.74928635 0.548657 6.1720247e-39
2.8959093 -0.67276859 0.58049357 1.4101174e-38
2.9386265 -0.64294553 0.55535299 8.476191e-39
3.0196426 -0.69211429 0.5499894 7.2783708e-39
2.7716293 -0.51385462 0.53578228 9.1251645e-39
2.8601809 -0.55810648 0.55636853 8.0177408e-39
2.9019177 -0.59649724 0.55821979 7.6467946e-39
2.7614038 -0.47606969 0.5203439 1.133858e-38
2.8460057 -0.4528212 0.55432785 1.2169062e-38
2.9277542 -0.42037308 0.58232212 1.3644917e-38
2.7969017 -0.39625007 0.5003559 1.3184299e-38
2.8480747 -0.35231701 0.51971787 1.4013701e-38
2.9397938 -0.34792992 0.57238764 1.4659429e-38
2.8727362 -0.24284977 0.52700943 1.530516e-38
2.9202578 -0.25531432 0.57430875 1.5396995e-38
2.7865119 -0.11416296 0.51787847 1.6688096e-38
2.8431149 -0.15416378 0.55490762 1.6596257e-38
2.6912549 -0.011305477 0.5121792 1.5673582e-38
2.7529442 -0.049655635 0.55048567 1.6780288e-38
2.8063164 -0.088915378 0.5848667 1.6688093e-38
2.6508391 0.056507349 0.54702687 1.7425298e-38
2.7122455 0.010255446 0.57714432 1.6872483e-38
2.5933843 0.17048953 0.55363262 1.3737838e-38
2.6109073 0.13645336 0.54717815 1.5673944e-38
2.5750484 0.23683549 0.55623394 6.7317131e-39
4.8914642 0.52076083 0.51163799 1.4659476e-38
4.957046 0.54816192 0.54565644 1.4290695e-38
5.0395112 0.58435589 0.55101252 1.41985e-38
5.3343673 0.57561111 0.5002538 1.3369102e-38
5.4538188 0.58459598 0.50358778 1.3645688e-38
5.6712432 0.59149075 0.50319248 6.2707588e-39
4.5773463 0.67859548 0.51821065 2.2039797e-38
4.6474519 0.67871714 0.55674762 2.1946887e-38
4.7380562 0.67357826 0.56270784 2.1669583e-38
4.8500133 0.67877561 0.5468325 2.1208244e-38
4.946197 0.68569338 0.53796059 2.0747266e-38
5.0788937 0.62187898 0.55934662 1.4751674e-38
5.1539688 0.63730848 0.53859073 1.4844228e-38
5.2371669 0.67550749 0.54538882 1.4660557e-38
5.3159518 0.68477845 0.54961789 1.4568361e-38
5.4584465 0.62445194 0.50401509 1.3461295e-38
5.5473623 0.62994862 0.50422227 1.4014469e-38
5.663929 0.64386469 0.50663602 1.5582157e-38
5.7595153 0.64782614 0.50549501 8.0221142e-39
5.8209486 0.66170549 0.50389677 7.7444455e-39
4.2813759 0.79240727 0.50650567 2.1947244e-38
4.3670945 0.77659923 0.52098733 2.1947246e-38
4.4471331 0.75950384 0.54673958 2.1855052e-38
4.5454054 0.73308229 0.55588347 2.1947246e-38
4.6412964 0.71719158 0.57675809 2.185541e-38
5.0674419 0.70398474 0.57025957 2.0193734e-38
5.1376286 0.70754033 0.56452465 1.917958e-38
5.2472763 0.71180099 0.55722374 1.7335308e-38
5.3541512 0.71131682 0.55355638 1.5214448e-38
5.4016762 0.71924639 0.59228671 1.3370178e-38
4.1834722 0.86191547 0.51728874 2.2038723e-38
4.2420583 0.85474509 0.55384779 2.1854334e-38
4.344162 0.82444131 0.56709921 2.1485913e-38
4.4243441 0.81113428 0.58692759 2.139372e-38
4.0851731 0.96828479 0.51020366 2.176178e-38
4.1523552 0.95175678 0.53952491 2.1577389e-38
4.2308521 0.93457645 0.57942265 2.1669943e-38
4.0929413 1.0533307 0.50300342 2.1116416e-38
4.1511517 1.0451651 0.540402 2.1208612e-38
4.2092175 1.0585439 0.58552372 2.1300807e-38
4.1761074 1.1063079 0.53323418 2.0378851e-38
4.2416348 1.118591 0.57288212 2.0932386e-38
4.3394551 1.1631835 0.5937162 2.0840191e-38
4.5569181 2.0267692 0.5095396 1.5865612e-38
4.65944 2.0673337 0.5210098 1.6234396e-38
4.7367511 2.0930858 0.5227927 1.6970879e-38
4.7775936 2.1214681 0.54625493 1.61422e-38
4.8630733 2.1489277 0.54730844 1.6510981e-38
4.9554372 2.1805151 0.5576514 1.6879041e-38
5.0283856 2.196559 0.54772359 1.7154906e-38
4.9981985 2.2374578 0.57688874 1.3100826e-38
5.0504498 2.2296617 0.58153224 1.6049643e-38
5.146286 2.2510397 0.58045101 1.6878321e-38
5.2589107 2.2808182 0.58421582 1.7614805e-38
5.3054652 2.2984667 0.5970453 1.770736e-38
5.240551 2.3610682 0.59730053 1.0151296e-38
5.3706203 2.3127217 0.5935396 1.7983944e-38
4.7736635 2.4571676 0.50276554 7.7621565e-39
4.8409147 2.4746938 0.50936824 7.9458275e-39
4.9130402 2.4864008 0.51744485 7.8536333e-39
4.8904057 2.5184615 0.52682537 7.9465464e-39
4.9563961 2.538043 0.53354096 8.0383833e-39
5.057323 2.5684483 0.54784316 7.853992e-39
5.157454 2.5840557 0.5630371 7.9454646e-39
5.0714488 2.6297951 0.55816877 8.4997188e-39
5.1628246 2.6490963 0.57541639 8.0380218e-39
5.2573981 2.6474366 0.58730495 7.9454646e-39
5.317605 2.6834717 0.59841144 8.0373001e-39
5.1910419 2.7057197 0.57667983 8.4075231e-39
5.2420874 2.7344937 0.58559227 8.68411e-39
5.3635788 2.8150072 0.59196639 9.5138707e-39
5.4862218 2.8912351 0.59364223 1.0067044e-38
4.1539192 3.6570654 0.55543894 7.1015732e-39
4.2241278 3.6810422 0.58658099 6.9186253e-39
4.1831203 3.7161915 0.56066406 7.0093706e-39
4.2418728 3.751945 0.57907474 7.1934045e-39
4.3114619 3.7898185 0.5971458 7.1937647e-39
4.2838583 3.8310471 0.58776903 7.2855931e-39
4.3110023 3.8294024 0.59619224 7.2855959e-39
4.3816242 3.9399836 0.59422106 7.4696215e-39
4.8871245 4.1195641 0.50766492 7.6670588e-39
4.9487739 4.1715007 0.51584518 7.667063e-39
4.9709244 4.215282 0.54144859 8.5882878e-39
5.0450616 4.2631755 0.54345518 8.4960964e-39
5.1212978 4.2947941 0.52460206 7.9436513e-39
5.082756 4.3113551 0.56953692 9.233653e-39
5.1564817 4.3614879 0.57658178 9.1418203e-39
5.2277532 4.3840537 0.54050827 7.8518158e-39
5.2526159 4.4228749 0.57399565 8.7734036e-39
5.3322625 4.4726415 0.56444454 8.1284013e-39
5.3865838 4.5224423 0.58803356 8.4046239e-39
5.4479837 4.5539188 0.56682295 7.9447317e-39
5.5057335 4.5814347 0.55206442 7.9450918e-39
5.5596285 4.6365027 0.57748961 7.9443744e-39
5.6329045 4.6831765 0.57931155 7.9447331e-39
5.675622 4.7187185 0.59367347 7.8525403e-39
5.7336826 4.7504387 0.58402401 7.8525389e-39
5.8415246 4.8250437 0.58995974 8.0369301e-39
5.938509 4.885879 0.59117883 8.2216787e-39
1.9850928 -1.7405891 0.65085936 5.8943644e-39
2.0267415 -1.7111504 0.65056568 5.7103361e-39
2.0806441 -1.6917976 0.64809704 5.6188607e-39
2.1392004 -1.6446872 0.65156293 5.4348296e-39
2.1851044 -1.5807023 0.65073228 5.4344695e-39
2.2263985 -1.5304863 0.65141124 5.4344695e-39
2.1843781 -1.4482872 0.69895905 1.1239877e-38
2.2731407 -1.4588504 0.65659755 5.8025261e-39
2.3079996 -1.4123541 0.64519638 5.3415508e-39
2.2801433 -1.3655347 0.69110394 1.3084148e-38
2.3473616 -1.3537006 0.6499182 6.4471752e-39
2.413589 -1.3135626 0.62852573 5.0649667e-39
2.3707025 -1.2552365 0.68249804 1.6587209e-38
2.4533694 -1.2599018 0.64090508 5.5248616e-39
2.5268724 -1.2189541 0.62447286 5.2482733e-39
2.395618 -1.188393 0.6859681 1.9537101e-38
2.4546869 -1.1670339 0.67289484 1.5757454e-38
2.552362 -1.150704 0.65061927 9.6725649e-39
2.6286709 -1.1319424 0.6234259 5.3397487e-39
2.5804141 -1.0657814 0.66511095 1.6219148e-38
2.6430025 -1.0488156 0.64258379 7.7371882e-39
2.7169101 -1.0250592 0.61433995 5.3397473e-39
2.6406174 -0.94941598 0.65746218 1.3455087e-38
2.7453833 -0.94143212 0.62874132 5.8021674e-39
2.8045194 -0.91145313 0.60431117 5.9847524e-39
2.6984591 -0.8981216 0.63651758 6.264572e-39
2.7630446 -0.87216532 0.64510691 1.1889224e-38
2.8217218 -0.83272964 0.64347279 8.0166576e-39
2.94541 -0.80396241 0.6012795 6.7237453e-39
2.8491292 -0.74976647 0.64756113 1.3087395e-38
2.9503682 -0.77380335 0.60225153 6.7233894e-39
3.011852 -0.7373777 0.60072339 6.8166668e-39
2.8930616 -0.68138731 0.65184683 1.520607e-38
2.9213169 -0.63511783 0.64891821 9.4917694e-39
2.8777993 -0.53338665 0.629471 8.2954081e-39
2.9167471 -0.56434649 0.66744697 7.4652886e-39
2.8818297 -0.48056221 0.63005805 1.0877243e-38
2.9452991 -0.44380823 0.65263027 1.2537849e-38
3.010392 -0.41380489 0.68318361 1.3736752e-38
2.9826777 -0.34143677 0.63662505 1.4567233e-38
3.010447 -0.366083 0.67692792 1.4290646e-38
2.951354 -0.24937133 0.65021855 1.530516e-38
2.8592315 -0.1442489 0.64799821 1.6595897e-38
2.9079764 -0.19295502 0.67005849 1.6135279e-38
2.7732179 -0.034684133 0.64877313 1.6688093e-38
2.811902 -0.083447382 0.65232921 1.6411505e-38
2.6680713 0.066955917 0.64661115 1.696468e-38
2.7190928 0.017620178 0.65407258 1.6780288e-38
2.5825987 0.1759925 0.64983785 1.5212601e-38
2.6260207 0.12621801 0.65135193 1.7333818e-38
2.5578618 0.24176298 0.64967531 7.8373404e-39
4.9902077 0.56007254 0.60476315 1.3276185e-38
5.0672154 0.58943754 0.64342183 1.3091793e-38
4.7456741 0.69152349 0.60935032 2.1302601e-38
4.8422766 0.69190091 0.61826527 2.0656154e-38
4.9546757 0.69546682 0.60045707 2.0101182e-38
5.0845013 0.6036616 0.61620659 1.3276185e-38
5.1498618 0.62259728 0.64699537 1.3183989e-38
5.2478991 0.65674424 0.65323019 1.3368382e-38
5.3417392 0.68710816 0.65615368 1.3553133e-38
4.49085 0.79664826 0.6047166 2.1393722e-38
4.5614147 0.78079629 0.62206417 2.1301526e-38
4.6538806 0.76049268 0.64150578 2.1393722e-38
4.7460175 0.74166316 0.6568262 2.1393722e-38
4.8342633 0.72734457 0.67316538 2.1301167e-38
4.9558711 0.71641213 0.65908146 2.0747632e-38
5.05512 0.72052324 0.65278304 2.0101182e-38
5.1458826 0.7269094 0.65414935 1.927214e-38
5.2458215 0.72875673 0.63950878 1.7611899e-38
5.3592687 0.72674829 0.63264912 1.5214451e-38
5.4438763 0.72703832 0.65383786 1.3738962e-38
5.5405502 0.73974246 0.68545115 1.3462377e-38
4.2903857 0.88959074 0.60749084 2.176214e-38
4.3621631 0.87406343 0.635616 2.1208613e-38
4.4475513 0.84967589 0.65216339 2.0840195e-38
4.5451045 0.82830966 0.66394067 2.0840195e-38
4.6357503 0.81745708 0.68730479 2.0748001e-38
4.7013025 0.8023321 0.69861627 2.0932032e-38
4.2655234 0.95489913 0.61478502 2.1485196e-38
4.3509974 0.94595182 0.66550654 2.1116417e-38
4.2569871 1.051724 0.6221568 2.1208614e-38
4.3524776 1.0479447 0.67260587 2.0655443e-38
4.2815738 1.1095433 0.6223737 2.1116779e-38
4.3566175 1.1378407 0.64618558 2.0839835e-38
4.4330969 1.172657 0.66572762 2.0378858e-38
4.5108495 1.199333 0.69634533 2.0194108e-38
4.4741588 1.2144105 0.64650536 2.0471049e-38
4.548315 1.2460314 0.68078804 2.0377775e-38
4.6028719 1.2968438 0.69727015 2.2128407e-38
4.5625782 1.4782848 0.66470969 2.0194108e-38
4.6234694 1.4569017 0.68977219 1.9825686e-38
4.5731125 1.5219046 0.66005009 2.019447e-38
4.6323667 1.5517138 0.68709242 1.9733851e-38
4.6910152 1.6059151 0.69370353 1.9826047e-38
4.7216229 1.6511189 0.69544137 2.0010437e-38
4.9314976 1.8821228 0.68657482 2.0932383e-38
4.9735284 1.9451391 0.67791462 2.2038004e-38
5.0105219 1.9899799 0.67388397 2.2498978e-38
5.0560298 2.0481234 0.66722733 2.1854689e-38
5.0877185 2.1111639 0.6883412 2.1210405e-38
5.1508484 2.146261 0.66084492 1.9735286e-38
5.2075162 2.1876693 0.64161313 1.899773e-38
5.0800943 2.2448034 0.60099882 1.6418065e-38
5.1550732 2.2710783 0.61669427 1.6233317e-38
5.2500691 2.2407546 0.65835756 1.8813701e-38
5.3261533 2.2788053 0.64197654 1.9089932e-38
5.1855521 2.3063445 0.62470675 1.5036576e-38
5.2633691 2.3251045 0.64233214 1.5403556e-38
5.3596764 2.3362675 0.66405165 1.687796e-38
5.3654232 2.4111021 0.64726388 1.2640573e-38
5.44662 2.4430304 0.66704333 1.3008275e-38
5.5212445 2.4848826 0.68103546 1.0058023e-38
5.5731621 2.5224187 0.67349416 7.939687e-39
5.628736 2.5690043 0.67511064 7.0195314e-39
5.2781858 2.6537306 0.60666734 8.0369414e-39
5.3335004 2.6731277 0.61968309 8.0373015e-39
5.4177284 2.683188 0.61749464 8.0365798e-39
5.592474 2.6527505 0.63741159 1.015599e-38
5.6631613 2.6410711 0.67009014 8.3120765e-39
5.7451601 2.6530881 0.69127798 7.2975644e-39
5.2684126 2.7217145 0.61340618 8.0380246e-39
5.3529186 2.7391429 0.6227116 8.0380218e-39
5.4383712 2.7577205 0.64874655 8.1294985e-39
5.5495625 2.7716899 0.66381621 8.1291356e-39
5.6481161 2.7704582 0.66003555 8.5897508e-39
5.738749 2.7593863 0.65408349 1.0617332e-38
5.8319421 2.7551606 0.68152124 8.9574473e-39
5.3730621 2.8005939 0.62015527 8.1305789e-39
5.4588337 2.8264565 0.65069139 8.2224144e-39
5.5446167 2.8556054 0.66912645 8.222413e-39
5.6538935 2.8402295 0.68893993 8.0373001e-39
5.7397513 2.8274772 0.68318987 8.0369399e-39
5.8424907 2.8323581 0.67852437 9.3269543e-39
5.9614353 2.8750997 0.68374562 1.0340745e-38
5.5952525 2.9352486 0.63771456 9.0528939e-39
5.6504703 2.9510381 0.67194349 8.2224158e-39
5.7159882 2.9464149 0.6927079 8.0380232e-39
5.9891739 2.9143603 0.69990683 8.6823052e-39
6.014143 2.9004812 0.69414836 9.9719636e-39
5.6996021 3.0036862 0.63317651 9.6060663e-39
5.7723079 3.0378458 0.65372419 8.8681426e-39
5.8385854 3.0769265 0.65986389 8.8685027e-39
5.8876615 3.1112871 0.64557433 1.0067044e-38
5.9362831 3.1284308 0.68514144 8.5919158e-39
6.0248055 3.1837599 0.68671155 8.7763071e-39
6.1721792 3.2705431 0.66343594 9.9748488e-39
6.2119737 3.2916291 0.69009656 9.7904576e-39
6.3201289 3.3945282 0.66564429 9.5142294e-39
6.1590438 3.4649196 0.6571238 8.6851932e-39
6.2594562 3.4720438 0.67913675 8.5926389e-39
