# .PCD v0.7 - Point Cloud Data file format
VERSION 0.7
FIELDS x y z rgb
SIZE 4 4 4 4
TYPE F F F F
COUNT 1 1 1 1
WIDTH 1034
HEIGHT 1
VIEWPOINT 0 0 0 1 0 0 0
POINTS 1034
DATA ascii
2.1724036 -1.6792605 -0.38256115 1.3175581e-38
2.2054892 -1.6949372 -0.37465858 1.2438406e-38
2.670752 -1.662557 -0.31466293 6.7317047e-39
2.7719665 -1.648223 -0.31037837 8.3912204e-39
2.803865 -1.6967024 -0.31651071 7.7458566e-39
2.5876667 -1.5406744 -0.31058082 8.0224309e-39
2.6666062 -1.5281773 -0.3195329 1.3276108e-38
2.7270646 -1.540221 -0.3089689 1.3830729e-38
2.5658603 -1.4758364 -0.31905013 1.1524382e-38
2.6767981 -1.4775546 -0.32865137 1.1156368e-38
2.7465017 -1.4389621 -0.33334669 1.4567265e-38
2.8108242 -1.4151993 -0.3905082 1.6226065e-38
2.7744193 -1.3742224 -0.33271107 1.6133867e-38
2.8403943 -1.3384116 -0.35246256 1.1244249e-38
2.8650527 -1.2534275 -0.35180998 7.6468115e-39
2.7993886 -1.1255655 -0.30287519 4.1444607e-39
2.8275068 -1.1429503 -0.35133246 6.1720415e-39
2.8494673 -1.0510976 -0.34954402 8.7499052e-39
1.1626873 -0.91870278 -0.3957203 1.586774e-38
1.2397698 -0.91360414 -0.3763752 1.4851058e-38
2.8517849 -0.95142049 -0.34931558 9.2094386e-39
1.1841346 -0.83830982 -0.36784458 7.5571508e-39
1.214695 -0.86909652 -0.35020506 9.0358808e-39
2.7848823 -0.8242479 -0.34902659 8.2889228e-39
2.8169937 -0.87435073 -0.35002509 8.6566264e-39
1.1793544 -0.75201756 -0.34216398 6.2577603e-39
1.2308279 -0.71933877 -0.36468667 7.0846413e-39
2.7487316 -0.74765843 -0.34998485 8.0119772e-39
1.2348572 -0.68875819 -0.31390259 5.7038747e-39
2.7488089 -0.65097427 -0.34923548 7.5513606e-39
2.6987627 -0.50109529 -0.32313803 6.5375758e-39
2.7298825 -0.55165458 -0.34872895 6.8141613e-39
2.6573205 -0.44688588 -0.34999785 6.9971176e-39
2.7031915 -0.49801791 -0.38801789 6.9992756e-39
2.5939219 -0.32150725 -0.37175477 9.3841553e-39
2.614826 -0.35800129 -0.34670612 9.750735e-39
2.5737479 -0.24962492 -0.3504715 5.9862097e-39
2.551367 -0.15074769 -0.34959194 6.17168e-39
2.4949403 -0.015500739 -0.3125315 5.5266721e-39
2.5472276 -0.054925378 -0.35281989 6.3567887e-39
2.470921 0.052942581 -0.31948763 5.5273896e-39
2.5348887 0.048440557 -0.37048575 6.9103198e-39
2.3957295 0.18736851 -0.30211815 4.7898259e-39
2.4627702 0.15862124 -0.34545013 6.1727562e-39
2.5113146 0.12522106 -0.37869787 6.8177654e-39
2.278075 0.28774264 -0.35196632 2.3052411e-39
2.3629742 0.26519853 -0.33949155 5.529556e-39
2.4294643 0.23476259 -0.35762727 6.3575076e-39
2.2386 0.34791386 -0.35025752 4.7923623e-39
2.2643311 0.43317196 -0.35386938 2.8573373e-39
2.3457313 0.48261642 -0.34926593 5.1604147e-39
2.4097605 0.49595338 -0.32107326 7.8330006e-39
2.3860016 0.50580716 -0.38730693 5.8972567e-39
2.4656296 0.53926027 -0.35906744 7.9233871e-39
2.5147212 0.57806247 -0.33651298 8.9357328e-39
2.4910574 0.69474018 -0.38603467 5.8054114e-39
2.5440934 0.65617919 -0.34917775 7.5549619e-39
2.1710517 0.7839607 -0.35527426 6.5538771e-39
2.2520776 0.76549768 -0.34211919 9.4072123e-39
2.3390849 0.73638463 -0.35343885 8.0202897e-39
2.4572692 0.71800524 -0.34722307 5.9898096e-39
2.5095458 0.70559919 -0.31622496 6.1734778e-39
2.1278813 0.84708107 -0.34777713 4.985457e-39
2.1218476 0.95005375 -0.34944087 4.0649538e-39
2.1329415 1.0479326 -0.34978864 3.8794808e-39
2.1743433 1.1507887 -0.34818879 5.7143158e-39
2.1948748 1.215762 -0.34178025 6.1738408e-39
2.2143886 1.2637497 -0.35110718 6.1738394e-39
2.2461715 1.3494374 -0.34906083 6.3578677e-39
2.2841272 1.4428225 -0.34581536 6.5415387e-39
2.3037646 1.4890236 -0.3657158 6.6333756e-39
2.3285713 1.5498255 -0.34904122 6.3567887e-39
2.3452654 1.6547984 -0.34764296 6.4486242e-39
2.2637036 1.7586565 -0.34767196 7.0932733e-39
2.3204169 1.7174035 -0.36358461 6.9088835e-39
2.1971383 1.8928118 -0.33471215 7.3705805e-39
2.2198448 1.8458185 -0.35113567 7.370219e-39
2.1911173 1.9346946 -0.35103208 7.3705805e-39
2.8301947 -2.5134163 -0.20259485 1.6138543e-38
2.7747059 -2.4435644 -0.21942154 1.613818e-38
2.8390965 -2.4437723 -0.21170014 1.5676479e-38
2.9367297 -2.4301486 -0.21505135 1.2818409e-38
2.666445 -2.3395417 -0.22632389 1.6506971e-38
2.7537916 -2.3540971 -0.22184619 1.5492087e-38
2.8623674 -2.3518596 -0.2286934 1.8904756e-38
2.9233029 -2.3511636 -0.21463177 1.4110586e-38
2.5688581 -2.2289176 -0.22257622 1.3834035e-38
2.6528664 -2.2446177 -0.22314626 1.4201351e-38
2.7440825 -2.257103 -0.2289878 1.4386455e-38
2.8613195 -2.2427597 -0.22564945 1.5954502e-38
2.9089582 -2.280077 -0.20903298 1.3833639e-38
2.4668891 -2.1323097 -0.22192378 1.2083405e-38
2.5514793 -2.1384304 -0.23344019 1.1988665e-38
2.6469488 -2.1437855 -0.23651589 1.0698282e-38
2.7639399 -2.1433663 -0.26070601 1.3831487e-38
2.8528254 -2.1399317 -0.24442093 1.4016597e-38
2.9056938 -2.1329882 -0.20449972 1.1804625e-38
2.2811615 -2.0165453 -0.21883292 1.2542927e-38
2.3504677 -2.0427186 -0.21843709 1.1806457e-38
2.4588804 -2.0400891 -0.23666121 1.2635126e-38
2.5549304 -2.045213 -0.26128781 1.2265619e-38
2.6385353 -2.0739281 -0.26457161 1.2357447e-38
2.7616985 -2.0881047 -0.28783342 1.5859791e-38
2.8809829 -2.0527577 -0.25509471 9.4064556e-39
2.9080153 -2.0495679 -0.20391937 1.6139619e-38
2.1684778 -1.9136823 -0.22935162 1.4107349e-38
2.2418146 -1.945165 -0.22484824 1.3555272e-38
2.3580298 -1.9463478 -0.24679282 1.3831502e-38
2.4464111 -1.9540768 -0.27055058 1.4015885e-38
2.5361898 -1.9633934 -0.28733978 1.7426392e-38
2.611582 -1.9919597 -0.29009187 2.0285537e-38
2.870266 -1.9507003 -0.2510902 1.1434758e-38
2.9012697 -1.9952683 -0.20298052 1.863106e-38
2.0756128 -1.8226229 -0.2402837 1.5397727e-38
2.1461184 -1.8516803 -0.24006027 1.4845277e-38
2.2533579 -1.8461438 -0.26267415 1.6043819e-38
2.3395092 -1.8627179 -0.28054333 1.4291381e-38
2.4154205 -1.8881208 -0.29119784 1.512078e-38
2.8576739 -1.8515989 -0.24910271 1.4569049e-38
1.964023 -1.722219 -0.23866086 1.6318954e-38
2.0509369 -1.728467 -0.25772765 1.4471791e-38
2.1471694 -1.7416093 -0.27767611 1.3822812e-38
2.2364061 -1.7724787 -0.28796658 1.7144733e-38
2.3030324 -1.796487 -0.29901025 1.7237291e-38
2.7654829 -1.7266612 -0.29686844 6.9164547e-39
2.8461728 -1.7510914 -0.24772702 8.2061117e-39
1.8938886 -1.6777732 -0.25022435 1.1146602e-38
1.9389981 -1.6786594 -0.26980123 1.0501593e-38
2.0440259 -1.6954106 -0.27623066 1.0685269e-38
2.6921649 -1.6811248 -0.29793102 6.6395091e-39
2.7901542 -1.658693 -0.29392022 1.5215498e-38
2.8282802 -1.650189 -0.24798909 8.2068334e-39
2.7676606 -1.5385338 -0.25193587 1.2909538e-38
2.8073211 -1.5929638 -0.24606292 8.76001e-39
2.7386494 -1.4443822 -0.2512964 1.2170899e-38
2.759824 -1.3664107 -0.24779268 1.6687401e-38
2.8555627 -1.3332651 -0.25420168 1.1246775e-38
2.9115148 -1.3172472 -0.22212836 1.0232985e-38
2.8594434 -1.2471617 -0.25301471 5.8990658e-39
2.9117532 -1.2870424 -0.20801836 7.8355397e-39
2.7464783 -1.1276958 -0.25175181 1.4190888e-38
2.8202786 -1.1854891 -0.25477701 6.5422702e-39
2.7370431 -1.048509 -0.24426295 1.7606076e-38
2.8157508 -1.0260968 -0.29338476 1.0591644e-38
2.781327 -0.98162663 -0.23372774 1.797559e-38
2.833106 -0.93895876 -0.25238746 1.5299389e-38
1.1927267 -0.81671679 -0.26899883 4.141951e-39
1.2037802 -0.82693768 -0.23152559 1.1992593e-39
2.785835 -0.81891018 -0.28645629 1.0037752e-38
2.8379469 -0.85651511 -0.24615011 1.7512802e-38
1.1861957 -0.74790424 -0.2593143 3.4983837e-39
1.2183627 -0.73366505 -0.21419129 2.2123308e-39
2.6920524 -0.71383405 -0.20820768 9.0336934e-39
2.7375727 -0.74690527 -0.25727692 1.465149e-38
2.8044069 -0.79582632 -0.23464026 2.2491356e-38
1.1993122 -0.69913763 -0.27466097 7.4544987e-39
1.235633 -0.68270665 -0.25468102 4.4185393e-39
2.6906343 -0.64823967 -0.22651067 1.7604633e-38
2.7262931 -0.6514591 -0.27650309 8.1956454e-39
2.6862676 -0.54783618 -0.22962843 1.6958541e-38
2.7202742 -0.55511636 -0.27950948 7.2740534e-39
2.6542625 -0.44918373 -0.24908443 1.2068938e-38
2.5983801 -0.30406857 -0.26579976 7.3684169e-39
2.6184719 -0.35311446 -0.2493467 1.0041363e-38
2.5769391 -0.24941799 -0.25026023 7.9219466e-39
2.6013303 -0.2977083 -0.22890654 6.7201664e-39
2.533056 -0.1484229 -0.24952261 6.3542664e-39
2.4910655 -0.026123064 -0.24664146 5.8018142e-39
2.5079451 -0.074322894 -0.25338194 5.7096186e-39
2.4479129 0.050497778 -0.25003704 5.433752e-39
2.3754127 0.16494837 -0.24298142 4.7894658e-39
2.4099586 0.12018675 -0.26109776 5.1578868e-39
2.2832856 0.28243768 -0.24172683 1.3829288e-39
2.3412547 0.23787186 -0.2536934 4.237741e-39
2.2748318 0.34850228 -0.25084943 3.4123131e-39
2.2898357 0.42168862 -0.27186644 1.4754832e-39
2.3351943 0.45269912 -0.23526573 2.5811063e-39
2.4153178 0.49655351 -0.26251882 7.1876284e-39
2.4641273 0.52399617 -0.25111601 7.0954313e-39
2.5261478 0.57318407 -0.25418517 9.4892653e-39
2.4932675 0.69631559 -0.21685348 4.7898273e-39
2.5611894 0.65664327 -0.2500059 7.8308272e-39
2.6010439 0.67092019 -0.25890094 8.0159373e-39
2.1900051 0.79552299 -0.29723078 1.6503019e-38
2.2531734 0.78247058 -0.29515693 1.3093209e-38
2.3628047 0.77427667 -0.25075471 5.0678576e-39
2.4454758 0.72928977 -0.24926351 4.9749417e-39
2.5153921 0.7076866 -0.28149608 5.3440787e-39
2.1651275 0.85494703 -0.29009688 1.6780322e-38
2.2760758 0.86685538 -0.26084545 5.7139514e-39
2.317214 0.83103544 -0.23934151 4.8834663e-39
2.1498005 0.95023543 -0.28325704 1.3737868e-38
2.2564192 0.9476887 -0.23923092 4.9756633e-39
2.1606641 1.0466051 -0.27899185 9.5879784e-39
2.2255533 1.0480652 -0.23284894 5.0671387e-39
2.1869607 1.1504898 -0.26917288 6.0816451e-39
2.2147913 1.1441932 -0.22270386 4.7909105e-39
2.1957676 1.2160559 -0.27322158 6.266035e-39
2.2213931 1.2560062 -0.24359664 5.6203083e-39
2.2514496 1.3485161 -0.24862663 5.7125025e-39
2.2832475 1.4490772 -0.24737404 5.7121424e-39
2.3006074 1.4978524 -0.27712238 6.0812808e-39
2.287679 1.544837 -0.2142946 4.8823873e-39
2.3163025 1.5542544 -0.26168233 6.0805633e-39
2.2784381 1.6631773 -0.22729155 5.8954546e-39
2.3175189 1.6433102 -0.26972681 6.2645959e-39
2.2587299 1.749819 -0.25268134 6.5408212e-39
2.3008626 1.7016063 -0.2976222 6.6326567e-39
2.1957207 1.8908734 -0.25930449 7.002877e-39
2.2242165 1.8462845 -0.24829313 6.9103212e-39
2.1873436 1.9334823 -0.24996629 6.9114016e-39
2.2020743 1.9051441 -0.20235054 6.7270132e-39
2.9591179 -2.6186254 -0.11507137 1.2818767e-38
2.8646941 -2.5153863 -0.16518816 1.5584646e-38
2.9208221 -2.5278497 -0.12810247 1.5398809e-38
2.8583751 -2.4688222 -0.18837798 1.5215503e-38
2.9390814 -2.4545941 -0.14961325 1.3831844e-38
2.8350787 -2.3894284 -0.19834259 1.5584282e-38
2.9395266 -2.3505371 -0.14998892 1.2541462e-38
2.8897021 -2.2182906 -0.18560655 1.641296e-38
2.9239407 -2.2506397 -0.14099649 1.4845996e-38
2.8853476 -2.1788692 -0.18635707 1.5675757e-38
2.9297924 -2.1471615 -0.14850415 1.2818417e-38
2.9478364 -2.0597339 -0.15051655 1.005327e-38
2.8812575 -1.9321554 -0.15324484 1.4939997e-38
2.9107175 -1.9823686 -0.14572409 1.4387186e-38
2.8700135 -1.8424668 -0.15067665 1.4015517e-38
2.9019742 -1.8027512 -0.15174654 7.8348026e-39
2.891145 -1.7642587 -0.19124028 1.5675391e-38
2.924741 -1.7560117 -0.14546025 1.1892125e-38
2.8789601 -1.6364223 -0.16097519 1.6412242e-38
2.9142094 -1.6761134 -0.14064883 1.8533097e-38
2.7900617 -1.5263397 -0.17531934 1.3186489e-38
2.8261299 -1.5586263 -0.14251544 1.3739657e-38
2.7579119 -1.4451455 -0.14987119 1.2079064e-38
2.7647767 -1.3680134 -0.15308726 1.7149098e-38
2.8445752 -1.3337927 -0.14872606 1.3367631e-38
2.9287057 -1.3148665 -0.14841111 1.2260916e-38
2.8865945 -1.2294714 -0.18428572 6.7295747e-39
2.949223 -1.2664188 -0.14408404 1.1614098e-38
2.7409031 -1.1206417 -0.15551783 2.0645294e-38
2.8444529 -1.1806896 -0.15530492 1.3272917e-38
2.7464931 -1.054962 -0.15289068 1.4377419e-38
2.8237073 -1.0152165 -0.13936287 9.8602044e-39
2.7869771 -0.93603194 -0.13717642 8.3879974e-39
2.8227952 -0.95348173 -0.16011636 7.6500583e-39
1.2226636 -0.81211418 -0.18594845 2.0293759e-39
2.7691848 -0.84958112 -0.12193809 7.2823814e-39
2.8388889 -0.85620326 -0.17182741 1.5858346e-38
1.2380137 -0.75429547 -0.18464272 2.4899981e-39
2.6759539 -0.72623914 -0.14506578 9.4013829e-39
2.7372444 -0.77541029 -0.15090285 1.5487386e-38
2.8023524 -0.79928589 -0.18241957 1.9729826e-38
1.2543464 -0.69377732 -0.19535005 2.1204981e-39
2.6774123 -0.64948952 -0.14843559 4.3367651e-39
2.6934695 -0.56258667 -0.16506803 3.5948925e-39
2.7082036 -0.54458892 -0.13752359 4.2416772e-39
2.5975339 -0.40907913 -0.13484618 2.0273242e-38
2.6578138 -0.45796564 -0.15244527 1.1418153e-38
2.5960083 -0.3790051 -0.13828886 1.5852189e-38
2.6169474 -0.341869 -0.15515773 1.5394114e-38
2.734992 -0.3208752 -0.11184543 3.1332067e-39
2.5802536 -0.24540523 -0.18494815 1.8619864e-38
2.6578031 -0.24900153 -0.14217779 2.4889499e-39
2.7154672 -0.27215031 -0.1091003 2.48821e-39
2.5570271 -0.14434804 -0.17009173 1.4195214e-38
2.6199837 -0.15605038 -0.12361214 3.5023858e-39
2.4932191 -0.018372467 -0.19380127 9.6740125e-39
2.5333245 -0.055204052 -0.15288374 1.5207551e-38
2.6263008 -0.019991323 -0.12287574 8.5683838e-39
2.394897 0.095843159 -0.18310125 7.3680469e-39
2.4535639 0.057775535 -0.1725125 1.5390133e-38
2.5432734 0.055342183 -0.13526432 1.050594e-38
2.6373396 0.027535222 -0.1232083 7.3709308e-39
2.2689641 0.17481595 -0.12976012 3.1339199e-39
2.3509994 0.14483859 -0.16616663 1.0597058e-38
2.4512525 0.1170522 -0.12620761 9.1237324e-39
2.5058823 0.10635815 -0.10346557 6.267114e-39
2.2829194 0.25084475 -0.14853397 9.2231363e-40
2.3113177 0.20976147 -0.19236177 3.5938149e-39
2.2915902 0.34213963 -0.15403607 1.199618e-39
2.3102705 0.3891058 -0.13265736 6.8238989e-39
2.350657 0.44746521 -0.1502699 3.3193944e-39
2.4030476 0.4971067 -0.12229866 1.38221e-39
2.4396856 0.54034477 -0.14623694 1.4740413e-39
2.5170267 0.59081906 -0.14907859 7.2794611e-39
2.3672514 0.66110212 -0.11875097 1.5114627e-38
2.4587803 0.66017228 -0.15120928 7.369849e-39
2.5281312 0.63215399 -0.16344963 9.7672843e-39
2.3492298 0.75920892 -0.14437696 8.9386153e-39
2.429157 0.72002131 -0.17573906 4.8816628e-39
2.2966695 0.87868845 -0.13799334 8.1081413e-39
2.3143575 0.83628166 -0.15787552 6.0805633e-39
2.2728789 0.95047605 -0.15665156 4.7901903e-39
2.3110189 0.95451087 -0.10677879 1.4100119e-38
2.237983 1.050248 -0.14928235 4.697273e-39
2.3168528 1.0214562 -0.10379984 1.3639143e-38
2.2271552 1.1496964 -0.15104209 4.1451824e-39
2.2457047 1.2493849 -0.15036005 4.2366578e-39
2.2637439 1.3494071 -0.14927553 4.2366563e-39
2.2608924 1.4518826 -0.1476775 4.3284918e-39
2.1980207 1.591784 -0.10816501 4.5121628e-39
2.2340977 1.5500845 -0.14968938 4.5128831e-39
2.1935852 1.6489284 -0.12214144 4.7887497e-39
2.2196758 1.6451566 -0.17038199 4.8813055e-39
2.1972358 1.7103657 -0.11520094 4.9731424e-39
2.2172949 1.7526698 -0.15242232 5.157535e-39
2.2251911 1.8546855 -0.15128462 5.527035e-39
2.196002 1.9542124 -0.1482911 6.1738408e-39
2.2094121 1.9339167 -0.15251955 5.8968952e-39
2.9692523 -2.6182609 -0.048990935 1.2356712e-38
2.9691961 -2.5464003 -0.049215641 1.558356e-38
3.0013828 -2.531034 -0.0064755031 1.6137453e-38
2.9601927 -2.4474642 -0.053845108 1.3093916e-38
2.9564993 -2.3493004 -0.050936133 1.2264153e-38
2.9491544 -2.2488222 -0.050632637 1.5306616e-38
2.9569299 -2.1477249 -0.050270759 1.1711709e-38
2.9794335 -2.0623055 -0.052050147 7.746937e-39
2.8876128 -1.9223564 -0.064543881 1.6229295e-38
2.9219408 -1.9594131 -0.037744399 1.3647457e-38
2.8818009 -1.8454217 -0.055067889 1.4476858e-38
2.9144704 -1.8217795 -0.018300274 6.6402307e-39
2.8947229 -1.7893841 -0.069404855 1.0138987e-38
2.9380326 -1.7493435 -0.050214864 6.7298998e-39
2.882971 -1.6138556 -0.054859441 1.5489554e-38
2.9401329 -1.6732149 -0.04897907 6.1767204e-39
2.7986627 -1.5007631 -0.086788215 1.0697211e-38
2.849961 -1.5556192 -0.050712239 1.3740022e-38
2.786545 -1.4408492 -0.058484212 1.4015172e-38
2.805166 -1.4733038 -0.020058049 9.7741759e-39
2.7826736 -1.3753963 -0.055683397 1.788738e-38
2.843653 -1.3415757 -0.050555434 1.4105194e-38
2.9414279 -1.3181461 -0.04761485 1.3182869e-38
2.9745064 -1.266884 -0.052673738 1.2812274e-38
2.7544165 -1.1199076 -0.051508747 2.1660505e-38
2.8560181 -1.1775563 -0.051905442 1.4745841e-38
2.7568378 -1.0541315 -0.048278052 1.2164727e-38
2.8109949 -1.0208139 -0.076808974 8.1088504e-39
2.7792473 -0.94742805 -0.04909851 4.6068766e-39
2.8049772 -0.99086714 -0.08986409 5.2515173e-39
2.7629144 -0.85145551 -0.050776005 5.5306434e-39
2.6718304 -0.73233837 -0.050288852 1.2627863e-38
2.7251194 -0.776223 -0.046315819 5.3448074e-39
2.6774912 -0.65845412 -0.072699547 1.0522064e-38
2.7554665 -0.64745778 -0.030605873 5.5338397e-39
2.696126 -0.50060576 -0.079713657 1.2342619e-38
2.7428279 -0.55467993 -0.052896872 5.5334768e-39
2.5974426 -0.40863025 -0.07162606 2.0549837e-38
2.6616023 -0.45361221 -0.049198147 1.2522694e-38
2.7044244 -0.49493113 -0.015002251 1.1971688e-38
2.5938933 -0.38876289 -0.05983429 1.1979975e-38
2.632935 -0.36723822 -0.050589059 8.5701915e-39
2.7646899 -0.33324781 -0.049586836 3.5934491e-39
2.6939495 -0.20799351 -0.091554247 2.8569911e-39
2.7495768 -0.25208354 -0.050307106 3.5016235e-39
2.6655326 -0.14223941 -0.055528454 3.8707675e-39
2.7093563 -0.1879959 -0.030932844 4.054793e-39
2.556663 -0.057601321 -0.052912187 1.1981424e-38
2.6391442 -0.03590095 -0.048591919 7.5553179e-39
2.5733104 0.089004382 -0.081467509 7.5553263e-39
2.6528723 0.046619195 -0.048062429 5.8032478e-39
2.2797508 0.17851344 -0.088238284 2.2123308e-39
2.3469036 0.16528754 -0.075739205 3.409788e-39
2.465184 0.16777541 -0.058322087 6.0812822e-39
2.5450935 0.13744894 -0.040219195 6.8170382e-39
2.6026189 0.10332328 -0.012913692 6.5400897e-39
2.2932246 0.24754992 -0.090765275 1.4754874e-39
2.3390174 0.25938851 -0.056690313 4.9785542e-39
2.4598029 0.25086808 -0.028442703 1.1337131e-38
2.5110567 0.21957509 -0.013814082 8.6612969e-39
2.2984304 0.32808828 -0.095853202 1.2918136e-39
2.3422301 0.3508155 -0.047800954 1.1157808e-38
2.3645782 0.42639881 -0.060536839 1.0510994e-38
2.4373827 0.46881047 -0.053323958 7.9266283e-39
2.5134335 0.48936439 -0.026728356 1.2072527e-38
2.4645581 0.51970536 -0.084874831 5.6203041e-39
2.5289469 0.55586457 -0.045026019 1.2807924e-38
2.3847969 0.64515752 -0.063759103 1.2350205e-38
2.4348559 0.65086722 -0.04383501 7.0950656e-39
2.5219016 0.61167437 -0.051122032 1.2899758e-38
2.3599277 0.75534832 -0.088700213 1.0969086e-38
2.4436526 0.7479648 -0.043236189 2.6725845e-39
2.5086722 0.79327118 -0.007622228 1.0134303e-39
2.2969272 0.86979592 -0.093268134 1.8986116e-38
2.3323679 0.84446096 -0.082649983 1.4103012e-38
2.4486728 0.84487373 -0.05385036 5.6213957e-39
2.5457277 0.8589499 -0.022017084 1.7509953e-39
2.3457637 0.96224308 -0.060870726 1.4655093e-38
2.4467869 0.95874852 -0.044483069 6.7280879e-39
2.5514729 0.95179564 -0.027701048 3.8696759e-39
2.6051207 0.93084216 -0.010480143 1.0127044e-39
2.2735386 1.0811298 -0.08645954 1.7050009e-38
2.351119 1.0381219 -0.061140701 1.3916812e-38
2.4177597 1.0762129 -0.030064424 6.6362651e-39
2.5428224 1.0025419 -0.013986379 4.2370025e-39
2.2412882 1.151925 -0.077043973 1.5298662e-38
2.3504024 1.1527274 -0.053900603 5.3469738e-39
2.4385905 1.1523925 -0.02748494 2.580749e-39
2.226233 1.2482151 -0.065467581 1.3730978e-38
2.3647051 1.248729 -0.035356645 3.9633177e-39
2.4075811 1.2399927 -0.015350384 3.2261184e-39
2.1746266 1.3794017 -0.057313308 1.539049e-38
2.2374318 1.3431447 -0.050362337 1.1794874e-38
2.3437297 1.3180374 -0.01607001 8.0162876e-39
2.4037881 1.3107481 -0.012550922 2.4874617e-39
2.150744 1.4481404 -0.051496435 1.2994494e-38
2.2512894 1.4461426 -0.056968566 6.2649574e-39
2.3144734 1.475032 -0.0098440507 7.0054021e-39
2.150543 1.5533611 -0.049105559 1.096512e-38
2.2293723 1.5446579 -0.044218775 5.1582553e-39
2.336678 1.5433397 -0.010767904 4.1451866e-39
2.1584232 1.6457491 -0.050265193 9.6743838e-39
2.1515012 1.7472345 -0.034396559 9.0315424e-39
2.2055984 1.7707751 -0.082717292 4.880588e-39
2.0883999 1.8373288 -0.015673367 1.3918253e-38
2.1370575 1.8382233 -0.034416497 7.7397217e-39
2.2126088 1.8536779 -0.077372141 5.0653366e-39
2.1931648 1.943489 -0.067252524 5.5281112e-39
2.205698 1.9307631 -0.078791805 5.6199481e-39
3.1677787 -2.8116989 0.078239806 1.3649975e-38
3.079936 -2.7171202 0.041227784 1.3189356e-38
3.1445372 -2.7570765 0.072640821 1.3742173e-38
2.9654119 -2.6172545 0.015688144 1.6139616e-38
3.051157 -2.644443 0.055675715 1.4940354e-38
3.1082628 -2.6906703 0.080364533 1.3557781e-38
2.982691 -2.5802596 0.012143631 1.5677919e-38
3.0134804 -2.5509615 0.049231239 1.6229657e-38
2.9845326 -2.4462628 0.0313439 1.4754521e-38
3.0127401 -2.4510403 0.078298129 1.2726219e-38
2.9834812 -2.3497286 0.031330861 1.6045619e-38
3.011004 -2.3552577 0.082279332 1.3279394e-38
2.9783523 -2.2459884 0.048368901 1.6413685e-38
3.0646298 -2.2246435 0.091594167 1.4017316e-38
3.1192386 -2.2160149 0.096773818 1.4662685e-38
2.9808545 -2.1529043 0.033236466 1.0882666e-38
3.0357835 -2.1580377 0.073100463 1.4755961e-38
3.1213293 -2.1577079 0.090526529 1.8536698e-38
2.9923635 -2.0504239 0.026486024 7.4707075e-39
3.026196 -2.060035 0.069155164 1.18057e-38
3.1077244 -2.094656 0.094174415 2.0012191e-38
2.947866 -1.9435304 0.047438752 1.5030392e-38
3.0041759 -1.9923631 0.091029443 1.715197e-38
2.8925934 -1.8249805 0.011823177 1.2635463e-38
2.9229331 -1.8444444 0.050997775 1.2449273e-38
2.9450564 -1.7508084 0.047366288 6.7316991e-39
2.8886573 -1.6105808 0.04744146 1.410843e-38
2.9374588 -1.6682223 0.051591359 7.3763468e-39
2.8563814 -1.5521147 0.050601143 1.4017326e-38
2.7987294 -1.4123757 0.0016331688 1.97313e-38
2.8198233 -1.450668 0.049880307 1.3738585e-38
2.7978208 -1.3767011 0.002541102 1.6781393e-38
2.8409944 -1.360095 0.04815745 1.5396655e-38
2.9527025 -1.3217682 0.051552273 1.3551292e-38
2.986727 -1.2676538 0.038945135 1.3365449e-38
3.0050948 -1.2683853 0.066894159 1.2719719e-38
2.7680094 -1.1183712 0.04681484 2.2121849e-38
2.8490844 -1.1679282 0.051826913 1.6036583e-38
2.9050112 -1.1956949 0.065385953 1.4654379e-38
2.7664258 -1.0499287 0.047726903 9.5836175e-39
2.7707272 -0.95072645 0.048373751 6.0801976e-39
2.7421355 -0.84961247 0.049252521 5.6192251e-39
2.6787815 -0.7382924 0.044621855 1.2995212e-38
2.7246556 -0.73787653 0.055805128 5.342271e-39
2.7682929 -0.65228385 0.049659658 4.2366493e-39
2.7585123 -0.55208766 0.049747985 4.3288464e-39
2.6500931 -0.4242402 0.047496811 1.2993419e-38
2.7186816 -0.47638288 0.051701348 4.8805768e-39
2.6406789 -0.38406041 0.045745976 8.2936046e-39
2.7523911 -0.33947867 0.050556641 3.5005332e-39
2.7468426 -0.25062349 0.04949902 3.3165063e-39
2.6746066 -0.13938352 0.051620025 3.5012563e-39
2.706352 -0.18832672 0.038753074 3.5012577e-39
2.5693495 -0.061579321 0.048526697 1.2166176e-38
2.6394181 -0.036765486 0.050032422 5.8958007e-39
2.6464114 0.050601017 0.049598437 5.5259434e-39
2.5699711 0.16048959 0.045511339 6.3553398e-39
2.6093371 0.11330163 0.060094777 5.9861985e-39
2.3882813 0.29129973 0.04581707 1.7242346e-38
2.4502263 0.27518103 0.046797406 1.4473227e-38
2.536288 0.23463333 0.051203888 6.7252013e-39
2.3594141 0.34887964 0.049963806 1.4753792e-38
2.3629484 0.41515869 0.051663652 6.7298956e-39
2.459609 0.46620548 0.053261008 1.2072891e-38
2.508949 0.49187353 0.017554423 1.2624259e-38
2.485503 0.54686803 0.074759632 1.4006466e-38
2.5172088 0.55302399 0.024263443 1.3545129e-38
2.3873239 0.64514953 0.063051045 1.0136438e-38
2.4325407 0.64125824 0.041196898 9.8598457e-39
2.5138769 0.61034811 0.027490236 1.3177065e-38
2.394594 0.70549649 0.092486888 4.1448166e-39
2.4535694 0.74382311 0.050721154 3.2239478e-39
2.5129807 0.7902692 0.026534466 1.7499121e-39
2.4886482 0.81403816 0.087416679 4.789463e-39
2.5543373 0.85398751 0.0456645 2.6711425e-39
2.6005871 0.89778459 0.054416917 1.2885724e-39
2.3697875 0.98374236 0.051059373 1.3455824e-38
2.4359965 0.98065984 0.048410084 7.8318978e-39
2.5711446 0.96362334 0.053883947 4.9745731e-39
2.6082752 0.93334335 0.036322862 2.5789413e-39
2.3740926 1.0447578 0.057898134 3.9615114e-39
2.4143076 1.0817345 0.019025428 3.9629575e-39
2.5421507 1.0024601 0.043402247 4.5135866e-39
2.3912258 1.120275 0.076478519 2.1190463e-39
2.4219332 1.1597061 0.038213089 1.8428252e-39
2.4242001 1.2507596 0.046284635 3.3175895e-39
2.2744317 1.3567475 0.048901867 9.5825385e-39
2.3360734 1.3263115 0.048057765 1.0043507e-38
2.4368382 1.3238263 0.058773093 3.2243037e-39
2.2956028 1.4092914 0.042531017 4.6972702e-39
2.3235421 1.4588926 0.050122187 4.6057948e-39
2.1847215 1.5961018 0.01120785 1.0415189e-38
2.2411122 1.5802674 0.0068418509 1.0969813e-38
2.3608143 1.5535239 0.046463098 4.329931e-39
2.1749351 1.6483829 0.038458895 1.0690683e-38
2.2352204 1.6320655 0.066208221 8.7545771e-39
2.3703856 1.6412598 0.060584739 4.2373724e-39
2.1768217 1.7489798 0.01998331 6.4533199e-39
2.2202704 1.7578913 0.068810768 5.7153906e-39
2.0924687 1.8566035 0.0045209019 1.3550558e-38
2.146956 1.8417989 0.013216043 8.5741796e-39
2.2433367 1.8492548 0.061315306 4.8863614e-39
2.1741703 1.9264387 0.024649439 5.9937851e-39
2.2485304 1.9431043 0.061094627 2.0282983e-39
2.2665901 2.0202847 0.084036656 7.742607e-39
3.1770015 -2.814472 0.14978766 1.5216584e-38
3.2130983 -2.8430026 0.15655398 1.632329e-38
3.1546984 -2.756582 0.14845608 1.4294627e-38
3.2064009 -2.7948971 0.15190051 1.2266324e-38
3.0634789 -2.6315887 0.15892269 1.5860873e-38
3.1119912 -2.6871789 0.15299921 1.3925483e-38
3.0315962 -2.553302 0.1485775 1.6690992e-38
3.0306394 -2.453733 0.149811 1.1803902e-38
3.0357757 -2.3572628 0.14872497 1.2264519e-38
3.3675065 -2.3143992 0.19044298 1.2541463e-38
3.4297848 -2.3397672 0.19341205 1.1342561e-38
2.9955659 -2.2389729 0.11765544 1.6412968e-38
3.0218594 -2.2415423 0.1609678 1.5767957e-38
3.156641 -2.2420878 0.14428924 1.4017315e-38
3.2366064 -2.2456334 0.16681887 1.3924757e-38
3.3319039 -2.2723041 0.18114267 1.3002082e-38
2.9969361 -2.1956663 0.11358719 1.6505882e-38
3.0121953 -2.1961427 0.13958217 1.4754524e-38
3.1646869 -2.1549795 0.12552777 1.6045258e-38
3.2208283 -2.1817501 0.1501133 1.5307332e-38
3.0620584 -2.0342953 0.14688657 1.8534542e-38
3.1172395 -2.0844755 0.15235867 1.8626736e-38
2.9729679 -1.9327196 0.1491316 1.6874303e-38
3.0121534 -1.9826326 0.15934494 1.7059413e-38
2.9579177 -1.8526577 0.14655384 1.3555255e-38
3.0045843 -1.8254577 0.18656467 8.9450991e-39
2.9528444 -1.7487963 0.14289865 1.3555608e-38
3.0020382 -1.7890927 0.18794927 9.5908258e-39
2.8895931 -1.6144229 0.13540049 1.3832565e-38
2.9217863 -1.6639918 0.15032053 1.2818051e-38
2.8574276 -1.5486274 0.15127127 1.4293916e-38
2.8396986 -1.4513165 0.14982523 1.4015171e-38
2.854902 -1.3756881 0.1445463 1.5489572e-38
2.9534564 -1.344388 0.14969356 1.3828602e-38
3.0084789 -1.3139818 0.16525698 1.3274705e-38
2.9664519 -1.2216443 0.1501874 1.4285959e-38
3.0173454 -1.27521 0.14959714 1.2996309e-38
2.7846196 -1.1156224 0.14396216 2.2399156e-38
2.8372536 -1.1519383 0.15551841 1.8710612e-38
2.9158845 -1.1936402 0.15328155 1.4654013e-38
2.7799122 -1.0705355 0.13253772 1.6776665e-38
2.8386219 -1.050338 0.16085477 9.1244372e-39
2.7747915 -0.93480974 0.14200674 8.4888069e-39
2.8218932 -0.97832006 0.16276026 2.2220264e-39
2.7489545 -0.84843093 0.14966185 7.9233969e-39
2.6937907 -0.74838907 0.1238612 1.6960344e-38
2.7226241 -0.74215376 0.15677221 1.1150229e-38
2.7438655 -0.65027547 0.14979538 1.0783619e-38
2.736861 -0.54992378 0.1500608 1.5026782e-38
2.6741469 -0.43346289 0.1557001 1.3087779e-38
2.7112787 -0.48125252 0.14166446 1.0322277e-38
2.6823053 -0.37136507 0.14837053 1.0044601e-38
2.7295351 -0.33921272 0.14760788 7.8322733e-39
2.6810608 -0.23784773 0.15893647 9.03262e-39
2.7232344 -0.26248631 0.13568896 5.805417e-39
2.5986669 -0.10011206 0.1724705 1.3275047e-38
2.6454878 -0.14941531 0.14939819 7.0046804e-39
2.7002039 -0.19751529 0.10129967 3.4090579e-39
2.57269 -0.054754496 0.1566816 1.3272166e-38
2.6223469 -0.032849118 0.12926376 5.8025247e-39
2.5758286 0.051459361 0.17570639 1.1794878e-38
2.6231818 0.048873618 0.12774225 6.354974e-39
2.5636878 0.153836 0.15382971 7.921941e-39
2.6068645 0.11298985 0.11764526 6.170224e-39
2.3953464 0.29360193 0.10878976 1.6873564e-38
2.444479 0.27596536 0.15513106 1.2722236e-38
2.5300269 0.23022515 0.14665377 6.6322812e-39
2.280911 0.39117405 0.177992 1.1065245e-38
2.3541684 0.34941176 0.14761271 1.1157448e-38
2.4085832 0.30365643 0.17348242 6.7320606e-39
2.1911728 0.48590431 0.18592297 1.6503725e-38
2.2470052 0.44524172 0.16634087 1.0233687e-38
2.3368504 0.43300045 0.1265876 9.2166399e-39
2.4469016 0.47749963 0.11624157 1.3639488e-38
2.1673057 0.55343312 0.17152895 7.7440518e-39
2.2359989 0.54739106 0.14119072 7.0965173e-39
2.3474607 0.56044507 0.13577768 1.4838036e-38
2.4523761 0.55211693 0.12144662 1.4099022e-38
2.1817238 0.61079097 0.17982551 4.8856299e-39
2.2568109 0.63699126 0.16556548 4.4232098e-39
2.3430593 0.66129261 0.1333562 5.7121424e-39
2.4208162 0.60251522 0.10478035 1.7970882e-38
2.3734796 0.72799695 0.16108188 4.6050717e-39
2.421869 0.7699787 0.13921043 4.5128747e-39
2.471241 0.83644623 0.15849271 4.6965457e-39
2.514909 0.87856513 0.13562562 4.6047102e-39
2.3617508 0.98115903 0.15103355 1.1888507e-38
2.4606447 0.97121137 0.1643059 5.8032436e-39
2.5241008 0.94939566 0.14385322 4.4206777e-39
2.3568082 1.0484275 0.14998125 2.9469993e-39
2.3849819 1.1296144 0.15352054 2.9470007e-39
2.4101439 1.1788232 0.14629829 3.0388376e-39
2.441246 1.2510684 0.15156557 3.0391964e-39
2.2742875 1.3535492 0.15206029 7.8311901e-39
2.3379266 1.3255681 0.14865206 9.675446e-39
2.4457703 1.3264718 0.14800206 3.4083306e-39
2.2934201 1.4124483 0.15888275 4.1440964e-39
2.3202462 1.4618121 0.14842273 4.2366521e-39
2.3603728 1.5515177 0.15149343 4.1448181e-39
2.1938953 1.6819334 0.15098028 1.1059111e-38
2.2377157 1.655609 0.14930506 1.0782508e-38
2.361196 1.6430814 0.15011112 4.2370095e-39
2.1993685 1.7016394 0.15073863 5.528114e-39
2.2302361 1.7538542 0.15091683 3.6849245e-39
2.2663522 1.8490176 0.15177903 4.0551546e-39
2.2782414 1.9582428 0.16110556 3.5941708e-39
2.302892 1.9625276 0.12911518 4.885997e-39
2.2640219 2.0154798 0.13661817 6.2667483e-39
3.1621497 -2.8084061 0.20644033 1.6229297e-38
3.0812759 -2.7208192 0.24746491 1.4844924e-38
3.1236708 -2.7502487 0.21395959 1.6137099e-38
3.0578599 -2.6520088 0.25938287 1.6320052e-38
3.1013954 -2.6951659 0.20583624 1.6598436e-38
3.0406759 -2.5509667 0.25211748 1.7426761e-38
3.0470486 -2.4524834 0.24828336 1.2909172e-38
3.4990616 -2.4013355 0.22213264 1.0421684e-38
3.561851 -2.4184043 0.24361908 9.775594e-39
3.6201668 -2.4433277 0.25541621 1.0235853e-38
3.0596802 -2.3581491 0.24904877 1.2540385e-38
3.2703848 -2.3082924 0.26043868 1.1066338e-38
3.3480685 -2.329982 0.25491485 1.0605719e-38
3.451211 -2.3585193 0.25551701 1.0052184e-38
3.5264559 -2.3784692 0.26826969 9.4986498e-39
3.0360851 -2.2448909 0.24892168 1.6689554e-38
3.1615319 -2.2711327 0.2482249 1.0144384e-38
3.2260311 -2.2889247 0.23906626 1.1619872e-38
3.3534429 -2.2349441 0.25049242 1.2171964e-38
3.4264436 -2.2808125 0.27685535 1.0696836e-38
3.1853311 -2.1111226 0.23715341 1.3923683e-38
3.2543311 -2.1610577 0.24741451 1.2909529e-38
3.3086898 -2.1943138 0.29119366 9.8670736e-39
3.0654781 -2.0182867 0.24277283 1.6228573e-38
3.1353762 -2.0706053 0.25065887 1.420027e-38
2.9799688 -1.9274305 0.25045201 1.7519314e-38
3.0132821 -1.9756776 0.24233462 1.7518954e-38
2.9706254 -1.8607409 0.25232974 1.4661967e-38
3.0040329 -1.8312318 0.24717882 8.2997395e-39
2.9891727 -1.7482498 0.25382316 9.0373045e-39
3.0017087 -1.7899789 0.21607532 9.2220461e-39
2.8955436 -1.6050212 0.24432051 1.2449276e-38
2.9527826 -1.662308 0.25217485 9.867075e-39
2.8633604 -1.5443548 0.25025773 1.4570142e-38
2.8613119 -1.4510727 0.25095326 1.447615e-38
2.9297867 -1.4031494 0.28906587 1.4199198e-38
2.8691711 -1.3917638 0.23197119 1.5951633e-38
2.9582026 -1.3715911 0.24374992 1.4105553e-38
3.0150521 -1.3269598 0.25712878 1.3643852e-38
2.9747827 -1.2210593 0.24220212 1.5023165e-38
3.0281994 -1.2745008 0.24966094 1.3550204e-38
2.7920678 -1.1095324 0.2344998 2.2307324e-38
2.8269303 -1.1360242 0.25843617 2.073928e-38
2.916003 -1.1883017 0.25709739 1.5483418e-38
2.7885795 -1.0929054 0.2397943 1.5393014e-38
2.8607619 -1.056426 0.25094873 9.3073936e-39
2.7909572 -0.92281097 0.21171087 7.01153e-39
2.8379457 -0.9518047 0.25646171 4.4235713e-39
2.7821565 -0.84283036 0.24192666 4.0551504e-39
2.8084431 -0.87930626 0.27565292 3.1328381e-39
2.74512 -0.74253917 0.25033796 1.0506301e-38
2.8008256 -0.70187509 0.29700553 6.725574e-39
2.7747118 -0.64724553 0.24744226 8.2932753e-39
2.8027933 -0.68322784 0.29007393 5.9876559e-39
2.7369297 -0.5496493 0.24986355 1.5026802e-38
2.6729343 -0.42759019 0.24592464 1.1244948e-38
2.7090945 -0.47824568 0.2546173 6.2664106e-39
2.6795068 -0.39336601 0.24870907 1.0690321e-38
2.7515528 -0.36614421 0.24303061 8.7549415e-39
2.8213544 -0.32771865 0.25887311 5.1607706e-39
2.6937661 -0.21135339 0.24220572 3.0659023e-39
2.7335358 -0.2505402 0.25301623 3.7987716e-39
2.8101923 -0.29202265 0.25127593 4.5175704e-39
2.6534677 -0.14861865 0.24948221 3.0568779e-39
2.5914717 -0.059784047 0.21878658 1.8436569e-38
2.6355381 -0.056842644 0.25399506 8.7567533e-39
2.709934 -0.014515968 0.27614594 5.4380778e-39
2.5842581 0.057055697 0.20829344 2.1845322e-38
2.6545205 0.060470898 0.25528961 9.0358822e-39
2.7205541 0.018483808 0.27136838 4.3335379e-39
2.5684795 0.15685453 0.21683142 1.8067811e-38
2.6398463 0.14742619 0.2664763 8.5752642e-39
2.4640203 0.27243581 0.2220331 7.3745504e-39
2.5377505 0.25402448 0.25411212 1.2996662e-38
2.6289537 0.2249079 0.27341789 5.7139402e-39
2.287724 0.39471006 0.20332327 1.9179177e-38
2.3623266 0.36171785 0.20957674 7.008293e-39
2.448992 0.34231058 0.23314004 1.3093555e-38
2.5507569 0.32883921 0.27468914 1.4562532e-38
2.6313829 0.36872968 0.28759727 1.3361466e-38
2.1983435 0.48863921 0.20439802 2.3417686e-38
2.2457709 0.4557617 0.21889107 2.2496433e-38
2.3389456 0.42233151 0.2342165 2.157482e-38
2.444943 0.41815948 0.24746107 1.9545436e-38
2.5614271 0.44133049 0.27101377 1.4377071e-38
2.6619246 0.44413212 0.28944403 1.4283067e-38
2.1789629 0.5581786 0.21027316 1.4936031e-38
2.2271354 0.54419637 0.23424394 2.1942183e-38
2.353862 0.57269734 0.27242485 2.0924035e-38
2.4354711 0.57828832 0.28909847 1.6312084e-38
2.5615456 0.55676359 0.29613864 1.4651483e-38
2.6230056 0.5141542 0.29612353 1.4928431e-38
2.1722896 0.61450511 0.20935655 6.5458743e-39
2.2561834 0.6569218 0.22628084 9.8627422e-39
2.3587739 0.64135367 0.27416399 8.6627654e-39
2.4057183 0.67096072 0.2906431 7.3727469e-39
2.2934394 0.7069003 0.2236179 9.8605772e-39
2.3486135 0.75525504 0.23183173 9.3992389e-39
2.4235425 0.75140882 0.28335124 6.7273817e-39
2.3848083 0.81900346 0.24734971 1.2073264e-38
2.4390092 0.85899025 0.24535303 7.2780191e-39
2.504283 0.87755203 0.29735184 4.7919951e-39
2.3694041 0.98256707 0.24494503 1.2257292e-38
2.4470556 0.94484085 0.24413638 7.9233829e-39
2.5098624 0.92562932 0.29632714 2.762978e-39
2.3505123 1.0491679 0.24927509 7.2794639e-39
2.4062052 1.0100287 0.29701054 2.394557e-39
2.3577623 1.1496421 0.2568073 7.6471618e-39
2.4043329 1.1886941 0.21321672 3.1303074e-39
2.3476307 1.2465454 0.27318859 7.8311873e-39
2.4180198 1.2550755 0.22341143 3.2228604e-39
2.198837 1.3610734 0.29673469 1.7146172e-38
2.2582352 1.3461663 0.2546497 7.9237445e-39
2.3412924 1.3149971 0.24610829 7.0939782e-39
2.4188714 1.3160373 0.22347432 3.4990843e-39
2.2751229 1.4422495 0.26157129 4.9731298e-39
2.3093252 1.4775575 0.22383334 3.8678654e-39
2.2839222 1.5503312 0.28807601 5.248995e-39
2.3267593 1.5536884 0.24044937 3.9597009e-39
2.1836596 1.6745138 0.25606155 4.7901875e-39
2.247345 1.6443048 0.25252569 8.2010446e-39
2.3302805 1.6243895 0.22687586 3.9597023e-39
2.188735 1.7373312 0.28196591 3.8689556e-39
2.2174966 1.7591096 0.24116985 3.1317521e-39
2.1939318 1.8140162 0.29573485 3.9607883e-39
2.2371738 1.8520777 0.25095811 3.0391978e-39
2.1947479 1.9598552 0.27948207 3.9611471e-39
2.23558 1.9441382 0.24269743 3.4083376e-39
2.2271895 2.0037725 0.20457809 5.1604007e-39
2.9793711 -2.6302035 0.30897614 1.4007968e-38
3.0552421 -2.6195593 0.33930111 2.018939e-38
2.8813081 -2.5335093 0.36765721 9.392074e-39
2.9280605 -2.5432012 0.33822691 9.2073198e-39
3.0655603 -2.5620735 0.33704755 1.8991208e-38
3.1151795 -2.5391812 0.37712207 2.2496443e-38
2.8828654 -2.4857147 0.39081916 7.3666484e-39
2.9077694 -2.4955764 0.38847119 7.2751717e-39
3.0831473 -2.4642966 0.31433704 1.7702989e-38
3.1216035 -2.4496841 0.36091381 1.899265e-38
3.0795076 -2.3406966 0.34503233 1.8348361e-38
3.1078749 -2.3854887 0.35906363 1.6134586e-38
3.2739527 -2.306695 0.31637383 1.0328773e-38
3.3531723 -2.3236647 0.32182679 1.0052187e-38
3.4565179 -2.3466585 0.32242736 9.1298687e-39
3.5016763 -2.3614533 0.31575462 8.6685318e-39
3.0494382 -2.24402 0.34782043 1.816469e-38
3.1535308 -2.2394736 0.32169461 9.8681582e-39
3.2459502 -2.2718909 0.32948387 1.0328776e-38
3.3449337 -2.2484362 0.33682099 1.0051109e-38
3.4174142 -2.2865126 0.32463151 9.0369556e-39
3.0510714 -2.1519752 0.36273414 1.834944e-38
3.1531625 -2.1462846 0.33624536 1.0881953e-38
3.2430511 -2.1666417 0.3327944 1.0235862e-38
3.3067017 -2.1977658 0.33872321 1.0604284e-38
2.9943402 -2.0121803 0.38099581 1.9271398e-38
3.0267954 -2.0556068 0.36030442 1.7704071e-38
3.1288381 -2.0699244 0.32714435 1.1065622e-38
2.9748242 -1.943947 0.35674655 1.8441276e-38
3.0118382 -1.9844012 0.3266283 1.5122592e-38
2.9587686 -1.8472879 0.34854618 1.5675765e-38
3.0004909 -1.8340842 0.30302772 9.4064514e-39
2.9506435 -1.7492259 0.35120279 1.3924047e-38
2.8804436 -1.62903 0.37998322 1.5676131e-38
2.9314408 -1.6634667 0.34423372 1.2817702e-38
2.865037 -1.5456712 0.35387996 1.1250023e-38
2.8803248 -1.4639381 0.34090081 1.3737866e-38
2.9415536 -1.4245021 0.35742685 1.6965428e-38
3.0141087 -1.4088498 0.37721205 1.4107358e-38
2.9876664 -1.3937749 0.31284615 1.4198473e-38
3.0377157 -1.3509883 0.34990108 1.3922245e-38
2.9740157 -1.2125188 0.34284514 1.5026415e-38
3.0519669 -1.273857 0.35041887 1.3644572e-38
2.8378434 -1.1263933 0.35220835 2.0834358e-38
2.9287975 -1.1869515 0.3534193 1.594801e-38
2.8711305 -1.0592856 0.34930888 7.5564039e-39
2.9007862 -1.048561 0.32105693 6.3571474e-39
2.8517354 -0.94984013 0.35038576 4.1455425e-39
2.7904944 -0.81121153 0.34342259 4.2377368e-39
2.8186805 -0.8617 0.35134038 4.2377368e-39
2.7638347 -0.74716181 0.34949037 1.0229717e-38
2.8027346 -0.70599103 0.35569674 4.7919881e-39
2.7811203 -0.63031244 0.3508966 6.5422772e-39
2.8046873 -0.68129575 0.34981078 3.7774845e-39
2.7494979 -0.54929721 0.3506968 6.4504445e-39
2.6738515 -0.42003033 0.34878618 1.3826061e-38
2.723731 -0.47166982 0.35020134 3.5934576e-39
2.6800878 -0.39541027 0.34784967 9.6772565e-39
2.7602651 -0.36632943 0.36056936 6.8199248e-39
2.8202558 -0.33069319 0.33954996 3.963675e-39
2.6978762 -0.20493598 0.3277362 2.4320768e-39
2.7258122 -0.24513055 0.3539139 3.8099568e-39
2.811168 -0.29294533 0.33614743 3.2308029e-39
2.6735497 -0.14702339 0.34765849 2.7867847e-39
2.7022917 -0.1922116 0.38329738 3.817535e-39
2.6436989 -0.066455796 0.3521038 9.9563783e-39
2.7109113 -0.020681292 0.34652406 4.9774626e-39
2.6900642 0.072174184 0.35447222 4.8870774e-39
2.7089818 0.025098756 0.34655359 3.4108642e-39
2.685209 0.1500755 0.35135463 4.6097689e-39
2.5544441 0.27751327 0.34931305 1.8250001e-38
2.657639 0.23085952 0.35102063 5.2529649e-39
2.5705175 0.31679082 0.34786841 1.3269988e-38
2.6422987 0.36571011 0.35078543 1.382244e-38
2.6889901 0.43892369 0.32586926 1.4743679e-38
2.7244251 0.4624055 0.36742485 1.5666353e-38
2.4448543 0.59096658 0.34218824 2.0183933e-38
2.5670586 0.57734847 0.34169015 1.4835147e-38
2.6420038 0.53509849 0.35371196 1.566491e-38
2.7180762 0.51033056 0.38137579 1.5758186e-38
2.3928897 0.64045918 0.30539772 9.862389e-39
2.448334 0.64808589 0.35130787 1.0136448e-38
2.5485601 0.60039353 0.39526302 1.3177068e-38
2.4757609 0.75013494 0.3521103 5.2536978e-39
2.4849932 0.81420106 0.34391183 6.5429876e-39
2.5266705 0.86639166 0.35251978 4.6990736e-39
2.3971109 0.98488861 0.30203351 1.3457996e-38
2.4426584 0.971789 0.34793437 1.2442035e-38
2.5406199 0.94046724 0.35326359 4.9749332e-39
2.3933926 1.0417585 0.30386788 1.0694315e-38
2.4647691 1.0456554 0.33984441 3.5938163e-39
2.5103638 1.0760379 0.3768557 2.2108846e-39
2.3493626 1.1750699 0.32240865 9.4010662e-39
2.4695406 1.1536709 0.34726307 3.3172322e-39
2.5060036 1.1353606 0.38581532 3.5008962e-39
2.3465068 1.2545822 0.34614411 1.1612664e-38
2.4545655 1.2227402 0.3856158 7.1879997e-39
2.5006354 1.2258399 0.39684886 4.8823845e-39
2.1988645 1.3618227 0.30296087 1.6866337e-38
2.2474978 1.3406137 0.31262675 9.8594884e-39
2.3255022 1.3352289 0.3616001 1.0320102e-38
2.2557213 1.4536222 0.3143453 1.2165452e-38
2.357502 1.44956 0.36642087 6.0798375e-39
2.25014 1.5541508 0.31846869 1.087363e-38
2.3475177 1.5638555 0.36035162 7.9230172e-39
2.4259021 1.5593538 0.38275868 6.1723918e-39
2.1489079 1.6703584 0.31906834 8.7560289e-39
2.2459648 1.6432489 0.35062265 1.1611551e-38
2.3294528 1.6086951 0.38255331 9.5821672e-39
2.4326923 1.6139356 0.38638073 6.2645805e-39
2.1479578 1.7505951 0.32192585 7.0035972e-39
2.2639966 1.7473816 0.37673029 3.685649e-39
2.3017921 1.7958277 0.39628676 2.2108818e-39
2.1728361 1.8540899 0.33206841 7.0032329e-39
2.2444611 1.862252 0.37376881 4.5154096e-39
2.3086572 1.8465246 0.39062446 3.2250352e-39
2.1806355 1.93268 0.33499038 6.6340902e-39
2.2144105 1.940197 0.38803208 5.7132242e-39
2.31617 1.9042044 0.39736703 2.6718614e-39
3.0860238 -2.6104133 0.42700416 1.9267078e-38
3.1228461 -2.6196358 0.46510789 1.8716423e-38
2.8521006 -2.5106077 0.41007149 9.1172864e-39
2.9630609 -2.5258553 0.44637686 5.6170951e-39
3.0405891 -2.5863817 0.43869266 1.1701641e-38
3.1313078 -2.5492542 0.44855931 2.0099717e-38
2.7700303 -2.43858 0.47747791 7.2823744e-39
2.8408873 -2.464493 0.44748226 6.5408507e-39
2.9122105 -2.4864373 0.44734186 5.6181755e-39
3.1436861 -2.4558415 0.45077756 1.8902614e-38
2.7730932 -2.3941171 0.49555728 5.4409827e-39
3.0841188 -2.3215442 0.44322398 1.7613332e-38
3.1161246 -2.369242 0.46138591 1.3648197e-38
3.0619473 -2.2507675 0.44355801 1.807395e-38
2.9673407 -2.1293902 0.47524431 1.7889191e-38
3.0382848 -2.1518369 0.43271843 2.0562141e-38
2.2735882 -2.0110097 0.4755128 1.3278689e-38
2.3373871 -2.0518162 0.4915787 1.3647473e-38
2.8957155 -2.0180812 0.49557751 1.7244899e-38
2.9556196 -2.0408614 0.46352506 1.8811506e-38
3.0188251 -2.0720892 0.42436615 2.0285552e-38
2.1871786 -1.9197108 0.49855116 1.346308e-38
2.2312605 -1.9719242 0.48897222 1.346272e-38
2.8638351 -1.9275767 0.47855327 1.4295743e-38
2.9434206 -1.9564114 0.4386563 1.9825658e-38
2.165271 -1.8983175 0.49981457 1.3646392e-38
2.6933529 -1.8095226 0.48441163 1.6230029e-38
2.7657282 -1.834656 0.47606429 1.4571609e-38
2.8674622 -1.8452731 0.44554937 1.9180654e-38
2.910182 -1.8597506 0.41547847 2.0563577e-38
2.3980772 -1.7103318 0.49704623 8.1142958e-39
2.4159577 -1.7178059 0.49277765 8.2068502e-39
2.5687208 -1.7167039 0.46651125 9.7752563e-39
2.6611569 -1.7434556 0.4633573 1.4292855e-38
2.7454641 -1.7541498 0.45160756 1.7612612e-38
2.8606501 -1.7515106 0.4286347 1.8350525e-38
2.9121156 -1.7713608 0.41210976 1.908845e-38
2.3978889 -1.6789711 0.49193373 9.4053934e-39
2.4392972 -1.6525832 0.47942686 9.1288051e-39
2.5524149 -1.6431581 0.46975449 9.2210007e-39
2.6445937 -1.6469941 0.45977265 9.2213609e-39
2.75194 -1.6623961 0.45548108 8.9447754e-39
2.8466649 -1.647087 0.4440603 9.129168e-39
2.9408159 -1.6332231 0.47678292 1.0143679e-38
3.0259764 -1.6382269 0.49082741 1.5490662e-38
2.8654449 -1.5539749 0.41930127 9.1288037e-39
2.9607832 -1.5382898 0.46311709 1.9269603e-38
3.0095801 -1.5873865 0.49064177 1.5951279e-38
2.8898873 -1.4929708 0.40581506 1.0418462e-38
2.9600973 -1.453949 0.44737586 2.0376671e-38
3.0313587 -1.4145502 0.45317984 1.4014806e-38
3.0668592 -1.3501215 0.44905949 1.3830415e-38
3.1042497 -1.3037465 0.48928806 1.3277247e-38
2.9821782 -1.2069077 0.43203461 1.5397008e-38
3.0728359 -1.2679147 0.43962255 1.3830412e-38
3.1072664 -1.2859633 0.48118031 1.3185047e-38
2.8663249 -1.1270428 0.43948635 2.1574449e-38
2.9288874 -1.1537988 0.47400802 1.8162874e-38
2.8674028 -1.0498391 0.44244704 1.2444932e-38
2.9105468 -1.0783815 0.49401352 1.6502271e-38
2.847436 -0.94920719 0.45065591 1.2814079e-38
2.7946835 -0.80445057 0.42407662 5.9901614e-39
2.8211951 -0.85335392 0.45172772 1.2629684e-38
2.780906 -0.74159753 0.43965429 1.0323357e-38
2.8091562 -0.77056026 0.48540491 2.194396e-38
2.7788532 -0.64743549 0.45411143 9.218093e-39
2.8011987 -0.68370241 0.41189343 3.5012563e-39
2.7471142 -0.54944146 0.45172617 8.2954179e-39
2.6868994 -0.41601613 0.44546214 1.5209712e-38
2.7232063 -0.46603882 0.45354512 7.8340768e-39
2.6899991 -0.35961249 0.48273474 1.0509181e-38
2.7479718 -0.34976533 0.44629693 5.4377093e-39
2.6962159 -0.22982351 0.49644077 6.2692734e-39
2.7254534 -0.25114277 0.4511607 4.9828702e-39
2.6827688 -0.14256065 0.4557595 4.5186452e-39
2.7062187 -0.18544297 0.4305627 3.8877148e-39
2.4891474 -0.024523923 0.4987103 1.5120051e-38
2.5282416 -0.021715952 0.49876648 1.115565e-38
2.6527748 -0.048954088 0.45137635 7.6504058e-39
2.6696434 0.048412338 0.45039678 4.2391787e-39
2.6613212 0.14963128 0.45129016 4.5154026e-39
2.5570347 0.27704462 0.45149699 1.9265955e-38
2.6511929 0.23080842 0.44847053 4.8841824e-39
2.5725026 0.33769086 0.46091816 1.6317878e-38
2.6386282 0.37313578 0.43230242 1.5575247e-38
2.5985491 0.40411043 0.4873639 1.8440917e-38
2.6462648 0.44278893 0.47526017 1.7699731e-38
2.7236297 0.46004695 0.43326288 1.6957094e-38
2.4723613 0.59373915 0.4533959 2.2214406e-38
2.568881 0.5879299 0.46002567 1.6591204e-38
2.6505709 0.55550796 0.45635578 1.7327325e-38
2.7170992 0.51943451 0.43864214 1.704929e-38
2.4730442 0.64844322 0.45050868 8.2932529e-39
2.5609496 0.6008442 0.42368987 1.3730962e-38
2.4944797 0.72587687 0.44765833 5.1596874e-39
2.509017 0.77438474 0.45281729 5.0671317e-39
2.4997332 0.80166084 0.40031198 1.3362921e-38
2.5418789 0.85136002 0.45163792 4.3295666e-39
2.4448016 0.97063333 0.45240587 1.1796671e-38
2.5553408 0.9427079 0.44947445 4.698345e-39
2.4824717 1.0488158 0.46004522 3.7760397e-39
2.5066504 1.0793093 0.42078438 3.3157833e-39
2.4958327 1.1176474 0.47640648 3.7763999e-39
2.5108812 1.1547176 0.44537961 4.1455425e-39
2.3882294 1.294814 0.44933635 9.8591156e-39
2.4366264 1.2812749 0.43578568 7.8322705e-39
2.5124941 1.2494162 0.4562377 4.145181e-39
2.3388774 1.3344265 0.44967028 8.9375321e-39
2.480799 1.3067973 0.47256768 5.2515145e-39
2.5089755 1.3060683 0.46203479 3.9615016e-39
2.3752236 1.4424518 0.44825932 5.5270266e-39
2.4052551 1.4904323 0.4680196 5.434831e-39
2.3390796 1.5995424 0.40615869 8.753131e-39
2.4341221 1.5519211 0.45006949 5.8039722e-39
2.2738626 1.6566988 0.4467499 1.1703387e-38
2.3325169 1.6214899 0.4508099 9.6747243e-39
2.4465981 1.6256976 0.45562294 5.5270196e-39
2.2909887 1.7272135 0.42806283 4.2370123e-39
2.3163583 1.7625749 0.45702443 3.684563e-39
2.2579033 1.8957136 0.40616235 4.4228525e-39
2.3447163 1.8541024 0.45157751 3.8693186e-39
2.2404776 1.9416879 0.4504672 6.7270047e-39
2.3378932 1.9223546 0.45820966 3.8696745e-39
2.2338958 2.0066643 0.45478919 9.7683633e-39
3.0913811 -2.6124654 0.53503215 1.3550227e-38
3.1176727 -2.6156316 0.52241457 1.6413342e-38
2.9799042 -2.5197809 0.54790962 7.0050658e-39
3.060921 -2.5749493 0.56749922 1.5303746e-38
3.1317008 -2.5512624 0.55189413 1.7979584e-38
2.7476604 -2.4165373 0.5202927 6.4558563e-39
2.8529611 -2.423003 0.53698462 4.9785654e-39
2.928721 -2.4713151 0.56334323 6.1760268e-39
3.149173 -2.4548712 0.54915023 1.76108e-38
2.6784406 -2.3242345 0.56123751 5.71865e-39
2.7575557 -2.3698471 0.55264014 5.256953e-39
2.8311591 -2.3693864 0.5676477 7.1001439e-39
2.9092908 -2.3407922 0.59264976 1.1987227e-38
3.0838094 -2.3200309 0.54472673 1.6044563e-38
3.1223853 -2.3728411 0.54546642 1.3923697e-38
2.5705445 -2.2395732 0.53932285 7.1023033e-39
2.626106 -2.2836823 0.54993665 6.2721839e-39
2.745595 -2.2223492 0.59162724 1.3277607e-38
2.8370285 -2.2692299 0.59149987 1.2632598e-38
2.9742444 -2.224287 0.57286859 1.7055104e-38
3.043077 -2.2645838 0.53852731 1.5859457e-38
2.4330287 -2.1274562 0.51591897 1.1988672e-38
2.5788853 -2.117198 0.57747459 1.2817349e-38
2.6508965 -2.1597762 0.58724427 1.300138e-38
2.7694323 -2.1278169 0.587542 1.3093577e-38
2.850903 -2.1511791 0.5854941 1.3461637e-38
2.9440579 -2.1481044 0.54665756 1.8625311e-38
3.0088797 -2.1973271 0.5078913 1.4659123e-38
2.2906122 -2.0048945 0.50562137 1.3463439e-38
2.3489432 -2.0557148 0.50851208 1.3002821e-38
