# .PCD v0.7 - Point Cloud Data file format
VERSION 0.7
FIELDS x y z rgb
SIZE 4 4 4 4
TYPE F F F F
COUNT 1 1 1 1
WIDTH 1031
HEIGHT 1
VIEWPOINT 0 0 0 1 0 0 0
POINTS 1031
DATA ascii
2.3760166 1.2197144 -0.48433182 4.1560186e-39
2.4424706 1.2501889 -0.45789516 2.5040881e-39
2.535507 1.2730517 -0.42539749 4.3487084e-39
2.4749212 1.3282183 -0.48225483 2.4954309e-39
2.5527208 1.3515455 -0.46486375 3.9896761e-39
2.6406643 1.3566368 -0.43365768 4.7131539e-39
2.7212417 1.3874999 -0.41572362 2.5868909e-39
2.5685928 1.4312334 -0.48960933 2.4122526e-39
2.6399024 1.4517055 -0.4739815 3.4476777e-39
2.7635727 1.4476981 -0.44656208 2.4028541e-39
2.8257163 1.4751139 -0.42741007 2.8703315e-39
2.9173441 1.4925276 -0.40120757 5.0754344e-39
2.6736095 1.5219254 -0.48748153 3.079621e-39
2.7486908 1.5519347 -0.48076996 3.2502978e-39
2.8391113 1.5476975 -0.44741589 2.4043003e-39
2.9298019 1.5596802 -0.41253531 6.4663156e-39
2.771714 1.6202253 -0.49332941 3.8139238e-39
2.866755 1.6429907 -0.47207105 2.1248267e-39
2.9488716 1.6529541 -0.43164879 4.7185685e-39
3.0119157 1.6758599 -0.4083057 5.3502192e-39
2.8872726 1.7111144 -0.49773702 2.4003276e-39
2.9532132 1.7445202 -0.46810588 2.6837752e-39
3.0427308 1.7579646 -0.42342713 5.0776022e-39
3.1046231 1.7928966 -0.40457568 9.6815739e-39
2.9846075 1.8233577 -0.4845134 2.2148587e-39
3.052011 1.8509853 -0.45303899 5.174132e-39
3.1243742 1.8628776 -0.41308543 7.9302227e-39
3.0774314 1.9424781 -0.4768841 3.7976926e-39
3.1372037 1.9555271 -0.43068838 7.0111628e-39
3.0922804 2.0320132 -0.49679577 1.1110531e-39
3.1516285 2.0527856 -0.44836 6.8311072e-39
3.1685247 2.1494384 -0.45422825 7.4757549e-39
3.2009637 2.1923573 -0.45589364 4.2420626e-39
2.6104643 2.2903559 -0.40851623 1.3374802e-38
3.0725586 2.2686067 -0.48419961 4.3587921e-39
3.1611159 2.2564442 -0.45160604 7.0122404e-39
3.2046652 2.2421381 -0.45600513 5.9004937e-39
2.5907042 2.3316846 -0.45744252 4.0858206e-39
2.6276579 2.3400698 -0.43712807 9.6934947e-39
2.7482882 2.3873379 -0.43043834 4.4347397e-39
2.8385415 2.396708 -0.4097195 5.4413092e-39
3.0671864 2.3431125 -0.44631156 5.2612578e-39
3.148998 2.3075705 -0.42414224 6.6391279e-39
3.2037339 2.3106382 -0.45040715 9.4024633e-39
2.7682486 2.4171429 -0.46807969 3.1476288e-39
2.8529119 2.433676 -0.45311642 4.6205841e-39
2.9479849 2.4523582 -0.45412183 4.8982528e-39
3.0566511 2.4470005 -0.44810528 5.628234e-39
3.1092017 2.4712327 -0.49267912 4.897185e-39
3.0763178 2.507776 -0.48688284 3.6060818e-39
3.1039715 2.5076489 -0.49300808 3.1505155e-39
2.6560938 -2.3371358 -0.35211775 1.6967267e-38
2.6304824 -2.2504811 -0.34989604 1.6966905e-38
2.5787783 -2.1371365 -0.34895787 1.6966182e-38
2.607409 -2.1875498 -0.35547122 1.6966185e-38
2.5422773 -2.0481741 -0.35042465 1.6873983e-38
2.5455337 -1.9525765 -0.34795338 1.3923716e-38
2.6008017 -1.9437157 -0.30140027 1.1341867e-38
2.5530632 -1.8454899 -0.34890035 9.3132202e-39
2.5644014 -1.7489415 -0.35239899 1.2630445e-38
2.5640218 -1.651767 -0.34905317 4.3303093e-39
2.5359664 -1.5476999 -0.34714517 2.3952857e-39
2.631403 -1.5154295 -0.30209562 1.0867881e-38
2.5284522 -1.4492884 -0.34993041 1.7506338e-39
2.6509266 -1.4416776 -0.30816168 1.0221794e-38
2.7049773 -1.4154017 -0.30046529 1.0497295e-38
2.559109 -1.3536484 -0.35846698 1.1052658e-39
2.6629355 -1.3493756 -0.31601387 8.9310553e-39
2.5663097 -1.2508074 -0.36523008 1.9346663e-39
2.6392267 -1.250699 -0.31859708 8.9310524e-39
2.557878 -1.1505958 -0.3635017 7.361203e-40
2.6258676 -1.1497973 -0.31774569 9.6671727e-39
2.5631611 -1.0518519 -0.36950681 5.5173044e-40
2.6159847 -1.0464377 -0.32376385 9.1143605e-39
2.5664124 -0.95185053 -0.37818715 3.6805945e-40
2.6389546 -0.95035493 -0.33019486 7.2736975e-39
2.7194424 -0.90668702 -0.30344227 1.5673215e-39
2.5717781 -0.85258675 -0.38249072 5.5173184e-40
2.6466579 -0.84983999 -0.34223828 7.3658889e-39
2.7538733 -0.8521471 -0.31112179 1.6587983e-39
2.8075881 -0.81291562 -0.30516642 8.2976067e-40
2.5874467 -0.7612288 -0.38978466 6.4428761e-40
2.6459651 -0.74850768 -0.35382667 6.8134396e-39
2.7493567 -0.75308847 -0.32198611 3.5016221e-39
2.8337705 -0.74438572 -0.31247926 6.4608687e-40
2.653861 -0.65207696 -0.36609232 6.7216083e-39
2.7406652 -0.64628047 -0.3298527 5.9001686e-39
2.8628399 -0.6568715 -0.31965789 9.2267937e-40
2.9254189 -0.61948425 -0.31276757 1.6595213e-39
3.0110021 -0.60033005 -0.3018719 4.6097815e-40
2.671488 -0.55218917 -0.37477136 8.5626301e-39
2.7459025 -0.5516367 -0.34209433 1.0693286e-38
2.8513098 -0.55677164 -0.33553612 6.4526908e-39
2.9604635 -0.57123041 -0.32858604 3.3186994e-39
3.0405655 -0.55717999 -0.32100776 3.0424586e-39
3.1451018 -0.53175193 -0.32082668 4.6097955e-40
2.6462677 -0.44606832 -0.36501738 9.5803917e-39
2.7494829 -0.4626691 -0.3341001 1.3831542e-38
2.8563354 -0.45664844 -0.32930571 5.9002106e-39
2.9439027 -0.44609377 -0.33194813 3.9640814e-39
3.0624387 -0.44920838 -0.33720097 3.4109048e-39
3.1601331 -0.44923496 -0.32104388 1.1063504e-39
2.6276298 -0.35249642 -0.36072814 1.0596344e-38
2.7422605 -0.34478846 -0.33914068 6.1771086e-39
2.8466315 -0.34462762 -0.34793335 2.6740376e-39
2.9594247 -0.33978125 -0.35808939 1.4754944e-39
3.0368688 -0.34127924 -0.33173138 1.0141561e-39
3.1280704 -0.38947663 -0.3150554 8.2940474e-40
2.6574848 -0.25359839 -0.37867734 9.76332e-39
2.7420483 -0.24718666 -0.36136255 7.3709308e-39
2.859863 -0.24198778 -0.36400896 1.93646e-39
2.9498906 -0.24317054 -0.33638397 1.2918178e-39
3.0095975 -0.2857379 -0.31664991 7.3828531e-40
2.6922481 -0.17633577 -0.39177606 1.0038825e-38
2.7377567 -0.14632002 -0.38597396 1.0041705e-38
2.8796728 -0.13157791 -0.3525869 2.212328e-39
2.909606 -0.17378934 -0.33690265 7.3792517e-40
2.7466302 -0.033536926 -0.36154673 1.1888867e-38
2.8569641 -0.071224116 -0.34592953 3.3186713e-39
2.7383821 0.048061375 -0.34967944 1.6226387e-38
2.7712891 0.1081168 -0.35943389 1.013788e-38
2.8630695 0.15140906 -0.35649344 6.3506748e-39
2.9050434 0.18319549 -0.32258946 8.2759861e-39
2.8831365 0.26322481 -0.36456782 8.0991562e-39
2.9085469 0.2325663 -0.33468473 6.8948495e-39
2.7887957 0.32285398 -0.39649561 1.1429704e-38
2.8577492 0.34754249 -0.36334518 7.7303737e-39
2.939256 0.35978261 -0.31540617 1.3829316e-39
0.797176 0.48681808 -0.37500501 2.4903582e-39
0.82611674 0.45512605 -0.3474547 4.610129e-39
2.7981412 0.43914244 -0.3961004 1.6595199e-39
2.8277211 0.45344377 -0.35583371 2.2119748e-39
2.9651752 0.44109991 -0.31963503 1.2903787e-39
3.0073936 0.46706304 -0.30520004 8.29039e-40
0.78662217 0.55069268 -0.34558925 2.2137713e-39
0.80619347 0.51411438 -0.31596479 2.4899981e-39
2.7851117 0.55483174 -0.38421908 1.2910961e-39
2.8399065 0.53894955 -0.34700403 2.6715083e-39
2.9352098 0.54977751 -0.30991009 4.2334278e-39
0.79069752 0.61886269 -0.3404808 2.0293801e-39
0.80101413 0.63991278 -0.30441356 2.0293801e-39
2.1547301 0.65653318 -0.35340086 1.5766153e-38
2.2444293 0.640863 -0.34617501 8.5767131e-39
2.3567758 0.64784271 -0.36599478 4.5215529e-39
2.4474514 0.64667583 -0.37031662 3.2300925e-39
2.545166 0.64908069 -0.37219676 3.7825418e-39
2.6488624 0.65166116 -0.37760913 3.413032e-39
2.7536564 0.64549327 -0.38724744 3.7818089e-39
2.8556707 0.65685225 -0.3863377 8.3926568e-39
2.9546633 0.65133327 -0.37128124 1.20794e-38
3.0493152 0.6598447 -0.33957824 8.1110266e-39
3.1099205 0.68949306 -0.32504129 7.0039518e-39
2.1671362 0.73975128 -0.37678647 1.3922594e-38
2.2339008 0.75874662 -0.34627712 1.5770123e-38
2.3511407 0.76240665 -0.31462455 2.148337e-38
2.4340875 0.71942991 -0.31590986 2.1025613e-38
2.5668621 0.75076491 -0.32671201 1.4845272e-38
2.6387372 0.7597453 -0.32964107 1.4753434e-38
2.7487619 0.75182509 -0.3520602 1.0604985e-38
2.8446507 0.7425679 -0.35874015 1.0420593e-38
2.9471245 0.74779832 -0.35871348 9.866705e-39
3.0561357 0.75199366 -0.35876191 7.7454923e-39
3.1243725 0.74956691 -0.330163 7.1897822e-39
2.0829897 0.88557935 -0.3869414 8.1193335e-39
2.1560209 0.86164546 -0.36998576 1.7241646e-38
2.2370031 0.84394014 -0.35466772 1.8624947e-38
2.3375971 0.84410501 -0.33198601 1.3923331e-38
2.4291847 0.86181968 -0.31639591 1.926885e-38
2.5162737 0.89227796 -0.32306594 1.3361091e-38
2.66255 0.81245446 -0.31065595 5.7182688e-39
2.7639146 0.82564795 -0.31304082 8.6699597e-39
2.847666 0.85305244 -0.32011768 7.6550875e-39
2.956356 0.82733518 -0.33311108 6.8249667e-39
3.0524335 0.82456648 -0.33125594 6.9150043e-39
3.12326 0.81244195 -0.31686577 8.1120944e-39
2.0950291 0.9039278 -0.38752374 2.0405932e-39
2.1569378 0.9474299 -0.37466964 8.7708406e-39
2.2607768 0.96132803 -0.35054919 9.5325752e-39
2.3397725 0.95615584 -0.33400416 1.4408832e-38
2.4426701 0.9469685 -0.32783911 1.7800599e-38
2.5493517 0.95158643 -0.32837576 1.2627152e-38
2.6581471 0.95874602 -0.33173102 1.2242517e-38
2.7390871 0.97214717 -0.33288524 1.0764523e-38
2.8731146 0.94318765 -0.32380381 7.2845043e-39
2.9195235 0.98507333 -0.31731266 9.31352e-39
2.1930392 1.006745 -0.38059053 8.310203e-39
2.255326 1.0340575 -0.36748323 6.2055886e-39
2.3157244 1.0409174 -0.35038823 6.2102843e-39
2.4639039 1.0052217 -0.34122419 6.5808829e-39
2.5715396 1.0105994 -0.3380267 9.4057591e-39
2.6587381 1.0467376 -0.34527314 6.4601849e-39
2.753931 1.0529388 -0.34136844 7.8348097e-39
2.8607051 1.0594041 -0.33473223 7.6503988e-39
2.9319129 1.0504618 -0.31575873 8.5755921e-39
2.3658068 1.1199874 -0.37965399 3.4224123e-39
2.4373102 1.1662092 -0.37531808 2.1241106e-39
2.7726097 1.1403935 -0.35585263 6.2739874e-39
2.8576849 1.1512899 -0.33651078 7.3766986e-39
2.9131958 1.1491385 -0.31165385 8.2064466e-39
2.4891627 1.2100004 -0.38379973 2.4928903e-39
2.5461619 1.2501836 -0.38364762 2.402501e-39
2.6530623 1.2791817 -0.37941712 5.739591e-39
2.7484393 1.2774007 -0.37343511 4.5305689e-39
2.8601794 1.2426959 -0.36047941 6.3640026e-39
2.9379907 1.253597 -0.32645074 8.2986408e-39
2.6609149 1.3220563 -0.38985649 3.2423636e-39
2.7535312 1.3457302 -0.38425082 6.932707e-39
2.857944 1.3483335 -0.37953228 7.286326e-39
2.9599893 1.341566 -0.35736993 7.1919486e-39
3.0242364 1.3653961 -0.32720989 8.2982821e-39
2.7850795 1.4104892 -0.39875743 5.2908518e-39
2.8530397 1.4284037 -0.39194831 5.7298183e-39
2.9521954 1.4502897 -0.38362491 5.1651021e-39
3.0552275 1.4492677 -0.34274316 8.206448e-39
3.1058347 1.4905926 -0.30830288 8.0220568e-39
2.9788127 1.5448508 -0.39338338 5.1651035e-39
3.0651443 1.5529149 -0.36610946 8.7596218e-39
3.1104603 1.5523351 -0.32015452 8.3904777e-39
2.9970379 1.6089839 -0.39632106 3.689972e-39
3.0625806 1.6445934 -0.37694311 8.3911966e-39
3.1135626 1.6537614 -0.32889706 8.8518118e-39
3.0823402 1.7285049 -0.38773483 9.1283973e-39
3.1317544 1.7525263 -0.34344563 9.0362003e-39
3.1681025 1.8506819 -0.35084906 9.5893685e-39
3.2010362 1.8947545 -0.30608758 1.0050344e-38
3.1848993 1.9486653 -0.36117107 1.0049982e-38
3.2046382 1.9538558 -0.31105742 1.0326928e-38
3.1857934 2.0564482 -0.35591847 1.0602793e-38
3.2055686 2.0276911 -0.31350613 1.087938e-38
3.172673 2.1487553 -0.34911662 1.106377e-38
2.5983078 2.2740963 -0.37951612 1.1806757e-38
2.6081452 2.2859986 -0.34801164 1.300494e-38
3.1747069 2.2461011 -0.35040995 1.1247439e-38
2.6329908 2.3530703 -0.35032159 1.5217276e-38
2.7666478 2.3875573 -0.34769949 4.5207934e-39
2.8372571 2.3928037 -0.35082793 5.0725267e-39
3.0712621 2.3579152 -0.35089561 5.6257061e-39
3.1408134 2.3139207 -0.34794995 5.9012083e-39
2.6361015 2.4008229 -0.32893765 1.6231429e-38
2.8930233 2.401684 -0.34847823 5.3487506e-39
2.9497097 2.4212995 -0.34736907 5.5331419e-39
3.038677 2.427088 -0.35368878 6.0863157e-39
2.5954552 -2.3054178 -0.21127903 1.7243496e-38
2.6260736 -2.3219199 -0.26644847 1.71513e-38
2.5816374 -2.2382867 -0.2342681 1.7151299e-38
2.6108716 -2.2615654 -0.27580121 1.7059461e-38
2.558558 -2.1518028 -0.24597749 1.7150938e-38
2.6016591 -2.196454 -0.29461914 1.7059461e-38
2.4911702 -2.0196507 -0.22189599 1.7242411e-38
2.518837 -2.0530713 -0.25941467 1.7150575e-38
2.4885125 -1.9451238 -0.23630469 1.6965819e-38
2.5453167 -1.9381156 -0.26629135 1.3001759e-38
2.6096249 -1.9424706 -0.23646647 1.0051491e-38
2.4903359 -1.8974997 -0.21851654 1.6873258e-38
2.582042 -1.8472315 -0.25499132 1.0143341e-38
2.6028953 -1.8838774 -0.21210866 4.0595196e-39
2.5761647 -1.749007 -0.2471391 1.4751304e-38
2.6021681 -1.7013482 -0.20457879 1.2630071e-38
2.5698385 -1.6594207 -0.26877823 9.9491771e-39
2.6445026 -1.6465266 -0.23870879 1.1889614e-38
2.7472396 -1.632516 -0.23378028 1.0693963e-38
2.8499031 -1.6274376 -0.22283171 1.0418465e-38
2.9282436 -1.6088495 -0.21060437 9.6809069e-39
2.5791583 -1.5798222 -0.29622138 7.3659044e-39
2.6532891 -1.557071 -0.28974992 1.1143748e-38
2.7429371 -1.5574355 -0.27434704 1.105805e-38
2.85289 -1.5588202 -0.25941446 9.2184798e-39
2.9533689 -1.5593306 -0.23305155 8.3894436e-39
3.0179021 -1.5655715 -0.2153959 8.574195e-39
2.6848054 -1.4740404 -0.29701814 1.0866079e-38
2.7469034 -1.4476398 -0.2853277 9.5807533e-39
2.8445151 -1.4483467 -0.25587863 6.4529668e-39
2.9291897 -1.4719434 -0.22860368 7.6518687e-39
2.6909873 -1.3380728 -0.29271004 9.7629739e-39
2.7476053 -1.340184 -0.25202861 4.6076109e-39
2.8182912 -1.3872166 -0.22997628 5.9919901e-39
2.6737914 -1.2486691 -0.29066283 8.843547e-39
2.7506924 -1.2516438 -0.24313533 2.8587876e-39
2.8058076 -1.2602129 -0.20528071 1.6598955e-39
2.6679661 -1.142056 -0.28039593 4.6980016e-39
2.7322638 -1.1524935 -0.23350489 5.3419445e-39
2.6666155 -1.0471238 -0.26838437 4.1466327e-39
2.7131543 -1.0459038 -0.22032344 6.4515221e-39
2.6832414 -0.97243124 -0.28564009 1.8431881e-39
2.7442746 -0.94888663 -0.24707289 4.7023303e-39
2.8265741 -0.92423922 -0.21223748 3.2286449e-39
2.7823794 -0.88046324 -0.27687919 1.1063462e-39
2.8348706 -0.84433067 -0.24421482 9.219563e-40
2.8567796 -0.74926811 -0.25063568 5.5353251e-40
2.9033899 -0.70523673 -0.20382665 2.8591407e-39
2.8838856 -0.68060058 -0.26346585 5.5424998e-40
2.9379504 -0.63951004 -0.24497829 8.301194e-40
3.0181894 -0.60464317 -0.25386652 1.1985432e-39
3.0700476 -0.59046131 -0.24747345 2.304532e-39
3.1470287 -0.54309958 -0.25155908 1.1063476e-39
3.1786447 -0.45122597 -0.25032261 1.3829344e-39
3.0612965 -0.32435003 -0.2546263 8.2976067e-40
3.1429541 -0.37430042 -0.24672276 2.4889219e-39
2.9557245 -0.2293012 -0.24834315 1.4754874e-39
3.0168395 -0.28005797 -0.25336957 9.219535e-40
2.8816297 -0.12068333 -0.24844778 2.9506133e-39
2.9126618 -0.17005292 -0.25047418 1.0141491e-39
2.7782197 -0.026205862 -0.24773709 1.7426752e-38
2.8375077 -0.073617026 -0.25117299 5.7168395e-39
2.755549 0.049650468 -0.24924517 2.0008943e-38
2.7654948 0.11178135 -0.24101484 1.4937825e-38
2.8647294 0.14724284 -0.25082803 7.6464583e-39
2.9119508 0.18539639 -0.25353211 7.7310953e-39
2.9282658 0.25079668 -0.25090656 3.9539584e-39
2.9644992 0.34276038 -0.25361794 1.2892941e-39
3.0125928 0.38760152 -0.22648498 2.0236151e-39
0.85710615 0.4717963 -0.26414728 5.809747e-39
0.90867239 0.47532025 -0.22484829 1.6414735e-38
2.9988635 0.40507463 -0.29705656 8.2939913e-40
3.0262291 0.44939798 -0.2501567 1.4718847e-39
0.79640359 0.57627261 -0.29426745 2.1215757e-39
0.83378005 0.54552114 -0.26541924 3.227919e-39
0.91141284 0.5550735 -0.23642366 1.2265221e-38
2.9679828 0.57976305 -0.27624339 4.9645076e-39
3.0411222 0.54605103 -0.24542473 1.6551955e-39
0.79806954 0.6100294 -0.29520774 2.0293801e-39
0.81968504 0.63024557 -0.26686859 2.2137685e-39
0.93320799 0.60491276 -0.24957177 9.9596111e-39
2.1749599 0.66141522 -0.29649976 2.3141811e-38
2.2256684 0.67737955 -0.29781607 2.3141812e-38
2.9840331 0.60744655 -0.25821322 5.7038635e-39
3.0484059 0.64231914 -0.24550296 7.1858235e-39
3.1169286 0.68687534 -0.25315541 7.8329852e-39
2.2589767 0.70163798 -0.29980823 2.3142535e-38
2.6466994 0.79189414 -0.29457286 1.6875358e-38
2.7065847 0.79966158 -0.29479098 1.8260085e-38
3.1616333 0.7483623 -0.26126674 8.1106482e-39
3.2094343 0.76731682 -0.21562415 8.6641808e-39
2.6819127 0.80849344 -0.29080108 1.8627431e-38
2.7764578 0.82428598 -0.27857757 1.6783524e-38
2.8498046 0.84928918 -0.24705683 1.2727289e-38
2.9420011 0.84941185 -0.24303687 9.3153347e-39
3.0512893 0.84257048 -0.25650156 9.4060842e-39
3.1557362 0.83357573 -0.25805962 9.2195252e-39
3.2177751 0.82956368 -0.22393824 8.7578183e-39
2.8826849 0.9253701 -0.28879979 8.4837636e-39
2.9510322 0.94751471 -0.24849924 9.9599895e-39
3.0151923 0.9899053 -0.22693832 1.0328773e-38
2.9733245 1.0609312 -0.28361592 8.2064522e-39
3.0477304 1.0547085 -0.2382369 8.9447417e-39
3.1069314 1.0582713 -0.20409301 9.3135243e-39
2.95871 1.1532954 -0.26328677 8.297922e-39
3.0344286 1.138353 -0.21841815 8.6670646e-39
2.9755142 1.2386854 -0.26051065 8.3897575e-39
3.0153005 1.2653973 -0.2220335 8.4823118e-39
2.9978478 1.3048018 -0.29493737 8.1135349e-39
3.047236 1.3499963 -0.24892767 8.2060879e-39
3.0855317 1.4284524 -0.26726294 8.1142524e-39
3.1164663 1.4653848 -0.23821875 8.2986436e-39
3.1370742 1.5515486 -0.24993713 8.3904763e-39
3.1468694 1.6487652 -0.24976175 8.5748648e-39
3.17079 1.7500384 -0.24979813 9.036559e-39
3.1905413 1.832006 -0.26063991 9.5893699e-39
3.2100942 1.873198 -0.23710164 9.7737583e-39
3.2208879 1.9505368 -0.24842595 1.0327289e-38
3.1940951 2.0903783 -0.28576416 1.1340358e-38
3.2207468 2.051686 -0.2464164 1.1524751e-38
3.1729603 2.1484957 -0.24897373 1.1616942e-38
3.2040794 2.1039584 -0.21783109 1.1985725e-38
2.6219318 2.2944832 -0.28073093 1.3004585e-38
3.1587267 2.2444487 -0.24807514 1.1893168e-38
2.6451149 2.3547461 -0.26516068 1.4939974e-38
2.7497237 2.3837276 -0.27503243 4.1520109e-39
2.8414435 2.3936355 -0.27104038 4.8881368e-39
3.0661302 2.3675461 -0.25034091 5.4413148e-39
3.1366699 2.321789 -0.25064236 5.7164626e-39
2.6557777 2.4097049 -0.25287861 1.4017299e-38
2.7754462 2.4292905 -0.2485016 3.597405e-39
2.8366709 2.4315541 -0.22451261 4.5186382e-39
2.9499211 2.4184096 -0.24911784 5.348752e-39
3.0246015 2.4172323 -0.24866158 5.9022845e-39
2.7839062 2.5190866 -0.23065567 3.3197475e-39
2.8214104 2.534338 -0.2134034 3.7807187e-39
2.5875893 -2.302166 -0.19223595 1.7244218e-38
2.5513878 -2.2453594 -0.15511253 1.7336413e-38
2.4887562 -2.1327016 -0.11878005 1.7336052e-38
2.5192118 -2.1539617 -0.16354975 1.733569e-38
2.4744992 -2.0468159 -0.14389211 1.7427166e-38
2.5070961 -2.0858212 -0.17965657 1.7426806e-38
2.4568489 -1.9441043 -0.14856425 1.7242411e-38
2.560632 -1.9241226 -0.15165006 1.5859822e-38
2.6160319 -1.9285625 -0.15117893 8.0235519e-39
2.4811196 -1.8905061 -0.14166678 1.6965818e-38
2.5822332 -1.8287473 -0.15787423 1.5673994e-38
2.6119225 -1.8725069 -0.14581326 5.5339238e-39
2.5922282 -1.7582303 -0.15484674 1.5212646e-38
2.6102054 -1.7162931 -0.13338125 1.3829342e-38
2.6576648 -1.6786499 -0.15209737 1.2353843e-38
2.7431846 -1.6544553 -0.15044752 1.1708476e-38
2.8554225 -1.6567403 -0.15340598 1.0879083e-38
2.9458334 -1.6374236 -0.15083019 1.0049331e-38
3.0332794 -1.6203229 -0.1386679 9.5883581e-39
2.9909317 -1.5276368 -0.18575448 7.6518785e-39
3.0467052 -1.5614762 -0.14837533 9.5879882e-39
3.1547792 -1.5051255 -0.10010819 8.3890526e-39
2.8825262 -1.4125384 -0.16531181 6.8213864e-39
2.9567845 -1.4507798 -0.14682832 8.3879764e-39
3.0416312 -1.4498835 -0.1117944 9.4939358e-39
3.1485243 -1.4406729 -0.10679215 6.3597006e-39
3.2116928 -1.4477209 -0.10306871 6.2675022e-39
2.787998 -1.3261374 -0.1915731 2.7658675e-39
2.8492901 -1.3551048 -0.16511281 4.3324701e-39
2.9477274 -1.3619263 -0.14082192 5.530656e-39
3.0373809 -1.3692544 -0.11668123 5.0696806e-39
3.1286647 -1.3836869 -0.10570826 5.8061597e-39
2.7908247 -1.2484094 -0.18706073 2.9499126e-39
2.8441956 -1.2521192 -0.15651816 2.3974633e-39
2.934243 -1.2485824 -0.10991213 1.8428462e-39
3.0155871 -1.2124921 -0.10185059 6.3593377e-39
2.7671261 -1.1463765 -0.17144214 6.2642694e-39
2.8462601 -1.1595235 -0.12884949 6.0798739e-39
2.9413934 -1.1715757 -0.11180264 6.3543014e-39
3.0078475 -1.1898566 -0.10267425 6.5433688e-39
2.7464557 -1.0444247 -0.15813234 6.4511647e-39
2.8253691 -1.0617889 -0.11213651 7.3760077e-39
2.7615495 -0.98055327 -0.16372795 1.0694682e-38
2.8611736 -0.95724529 -0.15736167 3.9651281e-39
2.9186459 -0.93791324 -0.12999192 6.4572954e-40
3.0582156 -0.91647404 -0.11375073 5.7146969e-39
3.1079438 -0.90885741 -0.10554972 6.1749576e-39
2.8793771 -0.8519426 -0.17679873 1.0137932e-39
2.9323308 -0.84391981 -0.14153594 1.2900228e-39
3.0649893 -0.8562215 -0.12388527 5.4373912e-39
3.1165309 -0.84760624 -0.11095117 5.8983679e-39
2.8867161 -0.76573586 -0.19122748 1.1989019e-39
2.9354217 -0.75518101 -0.16568357 3.7796621e-39
3.0645025 -0.74282283 -0.13472292 5.7143354e-39
3.1070197 -0.7803849 -0.10891236 5.8058122e-39
2.9582064 -0.64797473 -0.17716317 2.6733159e-39
3.0510364 -0.6466496 -0.13185568 5.43811e-39
3.0720973 -0.57085043 -0.14846218 4.4243182e-39
3.1186156 -0.52464443 -0.15578683 4.0558931e-39
3.0959373 -0.40344447 -0.16858767 3.6871077e-39
3.127568 -0.45116547 -0.14799091 5.0696848e-39
3.0670435 -0.33906341 -0.1589746 4.516867e-39
3.1159594 -0.36701733 -0.13326435 5.1622392e-39
2.9542644 -0.2360581 -0.15125275 1.7517156e-39
3.027843 -0.28139836 -0.14668354 3.3186825e-39
3.1056297 -0.29348481 -0.1039242 5.9923572e-39
2.8856142 -0.1233345 -0.17807898 3.133564e-39
2.923625 -0.16128832 -0.14757083 3.1342885e-39
3.0351768 -0.1265448 -0.1129686 7.1894529e-39
2.7951968 -0.013761015 -0.18580693 1.6318258e-38
2.8325038 -0.045674153 -0.15654738 1.4382143e-38
2.9435954 -0.065369293 -0.13009608 9.863475e-39
3.0432367 -0.071848802 -0.11053266 7.9270151e-39
2.7910759 0.039649148 -0.19066709 1.8439116e-38
2.8260393 0.048722222 -0.15431736 2.1019157e-38
2.9450245 0.050026495 -0.11962895 1.2075083e-38
3.0504496 0.064699948 -0.11007577 1.0969448e-38
2.7847519 0.11496412 -0.19100122 1.622785e-38
2.8483686 0.13815193 -0.16604218 1.4377821e-38
2.929554 0.17189071 -0.15212259 7.5499369e-39
3.0581839 0.14104918 -0.12543494 1.1520446e-38
3.1439359 0.15480421 -0.11274823 1.3456546e-38
3.2053058 0.19003995 -0.102635 1.4010071e-38
2.954113 0.23626977 -0.17221145 5.7924634e-39
3.0449843 0.26082119 -0.14860646 9.852664e-39
3.1499839 0.26429081 -0.12438273 1.078396e-38
3.2154031 0.25431615 -0.1059316 1.3733476e-38
2.9865863 0.32031605 -0.19512098 5.0556214e-39
3.0481782 0.3474417 -0.17875133 7.2661501e-39
3.1447372 0.35124177 -0.14323646 9.7702018e-39
3.2239187 0.35576215 -0.11239962 1.3457616e-38
3.0728283 0.45054796 -0.1888902 3.3111099e-39
3.1433172 0.44879234 -0.15585145 7.4649467e-39
3.2451663 0.45090422 -0.1175943 1.1891012e-38
3.0766814 0.55724633 -0.18553403 3.3165133e-39
3.1382475 0.54450989 -0.16008264 5.4377219e-39
3.2426553 0.55113816 -0.12495613 9.4924981e-39
3.0445321 0.62684959 -0.18137181 3.8693186e-39
3.1532028 0.65381491 -0.16730201 5.9905257e-39
3.2358422 0.65249604 -0.12893236 8.8478546e-39
3.1878574 0.71018964 -0.18594432 8.0180995e-39
3.2334764 0.7520873 -0.14836539 8.9407677e-39
2.8913043 0.855367 -0.19794734 4.529822e-39
2.9447646 0.8675074 -0.15605778 9.952386e-39
3.0498712 0.86010981 -0.1509039 1.1517566e-38
3.1492486 0.86103439 -0.14688757 1.161517e-38
3.2425375 0.83695096 -0.14762202 9.1265994e-39
2.9784796 0.91850871 -0.17582789 5.5324426e-39
3.0466313 0.9569546 -0.1511474 5.3469724e-39
3.121532 0.97709924 -0.10974505 9.220265e-39
3.0877426 1.0056704 -0.17634647 4.0580328e-39
3.1500444 1.0619173 -0.15144868 9.0369374e-39
3.2048059 1.0703903 -0.10651781 1.0696464e-38
3.0758648 1.1689712 -0.17081772 9.0358415e-39
3.1241746 1.1368698 -0.13615589 9.0362031e-39
3.0659156 1.2468007 -0.14991324 8.9429271e-39
3.1013889 1.2973695 -0.10437956 8.9436473e-39
3.0832677 1.3274969 -0.16935584 8.851093e-39
3.1154983 1.3630338 -0.1383782 8.9436487e-39
3.1478393 1.4511305 -0.1501835 8.8518132e-39
3.1689365 1.5496116 -0.1483586 8.6674206e-39
3.1787815 1.6493667 -0.14848022 8.3908323e-39
3.1941459 1.7311877 -0.15557252 8.4830265e-39
3.2063239 1.7744873 -0.14365259 8.5752221e-39
3.1996069 1.8015894 -0.19846568 9.4053401e-39
3.2228668 1.8493725 -0.15061356 9.4046199e-39
3.2437756 1.9521909 -0.14994246 1.0419484e-38
3.2344768 2.0529208 -0.1491679 1.1894248e-38
3.1760511 2.1553681 -0.14971791 1.2077559e-38
3.2085235 2.1092186 -0.14775474 1.2447062e-38
3.1548684 2.2442486 -0.14831942 1.2538177e-38
3.0693851 2.3664911 -0.14970401 5.5338678e-39
3.1293733 2.3186922 -0.15161504 5.1640076e-39
2.866014 2.4613695 -0.17050061 4.5186396e-39
2.9478033 2.4556837 -0.14561172 4.7952237e-39
3.027494 2.4273372 -0.14616206 5.6256991e-39
2.8643174 2.5476437 -0.15612268 3.8729157e-39
2.9075265 2.543895 -0.10729074 3.1353507e-39
2.8906832 2.6188874 -0.12897937 3.2275491e-39
2.901237 2.6067162 -0.10043374 2.7662122e-39
2.4908698 -2.20854 -0.065817036 1.7521528e-38
2.5122006 -2.2240286 -0.087050527 1.7336778e-38
2.4551308 -2.1470392 -0.052484129 1.7613362e-38
2.5014412 -2.1966503 -0.092609085 1.7336776e-38
2.3918478 -2.033406 -0.017128011 1.7705196e-38
2.4287734 -2.0542943 -0.06167908 1.7520805e-38
2.3834651 -1.9401479 -0.03233261 1.7612279e-38
2.4200127 -1.9361022 -0.07790181 1.7427166e-38
2.5726259 -1.9183269 -0.057139751 1.5953102e-38
2.6161337 -1.9214975 -0.053500269 5.6268257e-39
2.3850186 -1.8950863 -0.016760811 1.7703753e-38
2.4544241 -1.8840816 -0.043514453 1.7242769e-38
2.5704081 -1.836369 -0.047758151 1.3277267e-38
2.6110187 -1.8696284 -0.054623011 5.164407e-39
2.5867875 -1.7737459 -0.047673266 1.6226804e-38
2.6224871 -1.7259814 -0.049765546 1.4105933e-38
2.6743188 -1.6871223 -0.055349663 1.2261646e-38
2.7360392 -1.6558203 -0.046930254 1.1801024e-38
2.8642137 -1.6685781 -0.047052804 8.3894282e-39
2.9450333 -1.6508451 -0.052878331 7.8362698e-39
3.0271671 -1.6223317 -0.057707865 9.9571364e-39
3.270313 -1.6126165 -0.030941479 7.0068903e-39
3.3214004 -1.6113329 -0.027079351 5.9916594e-39
3.0656478 -1.5717236 -0.054016382 1.0234082e-38
3.1420858 -1.556542 -0.055744734 9.8645793e-39
3.2446344 -1.5477862 -0.072131008 8.2965417e-39
3.3363364 -1.5559223 -0.035368558 5.6221356e-39
3.0689976 -1.4921882 -0.096889988 1.4838679e-38
3.1626484 -1.4717816 -0.095179625 8.1117819e-39
3.2636783 -1.4489468 -0.055214904 6.6351987e-39
3.3073673 -1.4900664 -0.026947811 6.1745779e-39
2.9997885 -1.30135 -0.099517681 1.6573577e-39
3.0611937 -1.3206289 -0.09418387 3.2243205e-39
3.1698246 -1.3332196 -0.058680244 6.5426415e-39
3.2226725 -1.3726186 -0.040484607 6.6344756e-39
2.9715874 -1.2529737 -0.097045414 2.3023684e-39
3.0728717 -1.2301326 -0.064471364 6.358616e-39
3.1252759 -1.2677081 -0.037429057 6.4511675e-39
2.892942 -1.105583 -0.091791503 5.8983595e-39
2.9557996 -1.1242526 -0.055679709 4.5154279e-39
3.0404749 -1.1746553 -0.043857779 6.7277614e-39
2.8689771 -1.0475017 -0.08700484 5.8083233e-39
2.9163201 -1.044523 -0.040049344 3.4108838e-39
2.8866694 -0.99204183 -0.091438882 6.3622173e-39
2.94436 -0.96674585 -0.05464441 2.6736803e-39
3.0667827 -0.94374937 -0.046381097 6.0831319e-39
3.1138861 -0.91387129 -0.04761656 6.2671659e-39
3.1362927 -0.85178256 -0.051873978 5.9905748e-39
3.0962603 -0.71208268 -0.08284495 5.8983749e-39
3.12309 -0.75391358 -0.048567969 5.8983791e-39
3.0841241 -0.64604837 -0.053365305 5.9909349e-39
3.1062613 -0.68945777 -0.014910613 6.0827732e-39
3.091759 -0.57633317 -0.055939484 6.1753262e-39
3.1119635 -0.52802676 -0.048549656 6.0834879e-39
3.1366811 -0.45109573 -0.0519832 6.0838452e-39
3.1445663 -0.35035571 -0.051956952 5.9920083e-39
2.9649811 -0.21641058 -0.074229106 2.4889233e-39
3.0580037 -0.24007885 -0.062291224 4.7934581e-39
3.1374409 -0.2637763 -0.037624668 6.1763967e-39
2.9604332 -0.18540269 -0.077752009 1.8435511e-39
3.0725718 -0.14979319 -0.073538624 6.0834738e-39
3.1188736 -0.14220126 -0.031758904 6.7284915e-39
3.0783856 -0.058415465 -0.094304986 7.7429882e-39
3.151021 -0.051849764 -0.050385866 7.6511597e-39
3.2038221 -0.014033281 -0.011530697 7.8351936e-39
3.0805154 0.044774748 -0.091550656 1.0416279e-38
3.1481853 0.053836238 -0.053185482 1.0232252e-38
3.2177789 0.033669543 -0.014215392 8.7571387e-39
3.1708257 0.12753752 -0.067921355 1.2904461e-38
3.2283449 0.16564046 -0.038709085 1.3733852e-38
3.2508507 0.25028092 -0.051761374 1.4102259e-38
3.2487888 0.34858018 -0.051206186 1.3826392e-38
3.2656729 0.44901928 -0.051782463 1.2536376e-38
3.2684817 0.55094963 -0.053525642 9.4013829e-39
3.3045878 0.52729434 -0.0065790638 1.004711e-38
3.2639301 0.64949811 -0.052378066 8.4794336e-39
3.3016882 0.68969846 -0.0047422899 5.8994049e-39
3.2661383 0.74838096 -0.058210433 8.9407691e-39
3.3092935 0.75796127 -0.0089508044 6.3600201e-39
2.9904857 0.87820917 -0.094207823 1.5170456e-38
3.0442028 0.87823129 -0.085637294 1.2963893e-38
3.1618898 0.88270438 -0.071670063 1.1430424e-38
3.2639024 0.85054761 -0.058396842 9.2191594e-39
3.3145754 0.8462404 -0.012929389 6.6366084e-39
3.0710139 0.91865778 -0.085484326 1.2241453e-38
3.1586421 0.95565391 -0.063541912 1.1156728e-38
3.2539127 0.95056623 -0.02074023 7.7443979e-39
3.3047743 0.91415334 -0.0058049867 6.3607404e-39
3.1821613 1.0287368 -0.071311623 1.0328043e-38
3.2366035 1.0619733 -0.041546039 8.5752389e-39
3.1567547 1.1536885 -0.074865662 9.0358443e-39
3.2275472 1.1448478 -0.027885349 6.9153547e-39
3.0951819 1.2457573 -0.092284784 8.9432872e-39
3.1401353 1.2488682 -0.061078768 8.2060879e-39
3.206079 1.245911 -0.017895199 5.9937613e-39
3.1463308 1.3472568 -0.071678571 8.2986422e-39
3.2112763 1.354658 -0.022581488 5.9015657e-39
3.1715858 1.4470198 -0.078245185 8.4833964e-39
3.2208054 1.4518125 -0.030620342 5.8093729e-39
3.1864829 1.5505847 -0.082829826 8.391198e-39
3.2226629 1.5506589 -0.034624606 5.8093729e-39
3.1901774 1.6457622 -0.084606498 8.022054e-39
3.2171125 1.6509329 -0.036731284 5.6246215e-39
3.1970632 1.7232158 -0.090086147 8.2986408e-39
3.2166431 1.7529138 -0.045843773 6.0855968e-39
3.2184987 1.8503017 -0.049546078 6.2703454e-39
3.1973484 1.9663761 -0.0045924238 6.9153449e-39
3.2238941 1.9492898 -0.050778937 7.7458244e-39
3.1851838 2.0832479 -0.025892461 1.2260868e-38
3.2186091 2.0440118 -0.057234772 1.1616584e-38
3.1507084 2.1450768 -0.049222328 1.2169392e-38
3.2050428 2.1030583 -0.090680636 1.2630733e-38
3.1322401 2.2418218 -0.053050052 1.1892809e-38
3.0617692 2.3632023 -0.048513599 4.7037512e-39
3.1236334 2.3167439 -0.054210864 5.0718134e-39
2.9655895 2.4717307 -0.048927933 3.6885202e-39
3.0200901 2.424334 -0.056854002 4.1502145e-39
2.9148483 2.5461609 -0.050451875 2.8587638e-39
2.8988206 2.6300559 -0.021808717 2.581821e-39
2.9022861 2.6235034 -0.053641159 2.5821797e-39
2.3931079 -2.1154079 0.081953011 1.8167256e-38
2.4177151 -2.1321287 0.030508978 1.7982504e-38
2.378613 -2.0428002 0.052129172 1.7982144e-38
2.4042091 -2.0919566 0.02072696 1.788995e-38
2.3585272 -1.9456831 0.049943168 1.7981423e-38
2.5804665 -1.9097363 0.046650015 1.6321524e-38
2.6199596 -1.9191256 0.051540196 1.0605031e-38
2.3735225 -1.8884943 0.052618776 1.7888504e-38
2.4483097 -1.8772669 0.048996665 1.7611554e-38
2.5655785 -1.8511676 0.052303329 8.8540441e-39
2.6081488 -1.8793064 0.038286846 5.1658532e-39
2.5755796 -1.7675307 0.049761098 1.5120822e-38
2.622359 -1.7244126 0.045891993 1.4659111e-38
2.6683316 -1.6900595 0.051726725 1.226165e-38
2.7355938 -1.6506258 0.050015852 1.1893222e-38
2.8663111 -1.6426748 0.049126431 9.6805271e-39
2.9446585 -1.6163305 0.046991248 9.8652883e-39
3.0062711 -1.6056398 0.015949851 1.0234438e-38
3.1850655 -1.6040763 0.055955101 8.2976179e-39
3.258297 -1.6225957 0.05237205 6.8224892e-39
3.3335366 -1.6186953 0.047241077 5.807617e-39
2.9869156 -1.5908484 0.084633194 1.0233714e-38
3.038727 -1.5798234 0.045943607 1.0141525e-38
3.1337056 -1.5873967 0.049165808 9.3117684e-39
3.3457675 -1.5537386 0.048833843 5.5295728e-39
3.2812426 -1.4287348 0.043269131 6.4504361e-39
3.314467 -1.4764838 0.05406528 6.2660462e-39
3.1897414 -1.312742 0.040597007 6.6348329e-39
3.2320223 -1.3619781 0.052316837 6.542273e-39
3.0940793 -1.2083443 0.023047572 6.9117884e-39
3.142319 -1.2537796 0.051100943 6.9114254e-39
2.9825096 -1.1101778 0.043852542 5.2537132e-39
3.0584738 -1.1637876 0.049097024 6.4515347e-39
3.103163 -1.1969687 0.094032884 6.6352071e-39
2.9231632 -1.0383426 0.049832422 2.3963759e-39
2.9610496 -0.98398918 0.037762575 4.0551896e-39
3.0540612 -0.9516452 0.054375276 6.2671841e-39
3.1171739 -0.9131726 0.043308575 6.1746269e-39
3.1517305 -0.85140818 0.049486022 5.7140061e-39
3.1570127 -0.75049156 0.04895946 5.6218048e-39
3.0948677 -0.63103557 0.007855379 5.8991008e-39
3.1191397 -0.65082753 0.055998489 5.2533811e-39
3.0976315 -0.58738399 0.0047250986 5.8991022e-39
3.1251636 -0.54824263 0.050941009 5.3455823e-39
3.1622362 -0.45132989 0.04699501 5.3459396e-39
3.2021525 -0.40442768 0.084391974 3.9623045e-39
3.1770236 -0.35156375 0.025849756 5.8994637e-39
3.2130072 -0.34751868 0.076748811 4.0544932e-39
3.1813929 -0.25200033 0.023869583 6.083855e-39
3.2146697 -0.24713358 0.074312121 4.1474091e-39
3.1697683 -0.15097949 0.019432778 6.6363057e-39
3.2316165 -0.14861666 0.070640214 4.5154755e-39
3.1800153 -0.077704243 0.010810934 6.9132457e-39
3.2606475 -0.055235561 0.049919084 5.6218091e-39
3.3117707 -0.018006133 0.071031623 4.8849741e-39
3.2700703 0.044809662 0.0082086325 8.3887163e-39
3.3336143 0.050860506 0.058318123 6.0838452e-39
3.2655435 0.15643544 0.024669884 1.3457628e-38
3.3243365 0.14256042 0.071558058 1.1798475e-38
3.2810369 0.25643098 0.043191008 1.4287003e-38
3.3055437 0.22249481 0.082340516 1.4655783e-38
3.2622728 0.34985071 0.049863148 1.3733828e-38
3.2564898 0.44807169 0.049498901 1.2443816e-38
3.2863157 0.55673736 0.055651952 6.4514912e-39
3.307636 0.52803278 0.022434747 8.3875897e-39
3.2942736 0.63360858 0.051861778 5.8061288e-39
3.3032925 0.68227351 0.043297995 5.8983245e-39
3.3181028 0.7506265 0.047895581 5.8983245e-39
3.324815 0.85231793 0.048332568 5.9908802e-39
3.2812161 0.96440089 0.052670565 5.9916019e-39
3.3062859 0.91614407 0.040555488 5.9916005e-39
3.2443519 1.0491112 0.049168866 5.9923208e-39
3.2231262 1.1507725 0.048904337 5.8090085e-39
3.196157 1.2668097 0.068795852 5.5320629e-39
3.2040555 1.2377963 0.034368563 5.532423e-39
3.1983662 1.3113228 0.052176207 5.7164542e-39
3.2066693 1.3567057 0.04788588 5.4402288e-39
3.2213457 1.4493688 0.048907623 5.4398715e-39
3.22943 1.5503883 0.048467316 5.3476786e-39
3.2256937 1.6503454 0.049080011 5.3476758e-39
3.1537094 1.7559578 0.095131397 7.7447412e-39
3.220747 1.7490394 0.045649372 5.3480332e-39
3.1704102 1.8539312 0.085981876 9.0351227e-39
3.2122123 1.8460855 0.037119716 5.1640006e-39
3.0648987 1.9998798 0.097294942 1.9540339e-38
3.1728976 1.964663 0.055814177 8.2050005e-39
3.2060549 1.9200242 0.032538749 5.3483891e-39
2.9506752 2.0266392 0.087508917 1.8065931e-38
3.060113 2.037504 0.078042187 1.299771e-38
3.148196 2.0482404 0.037553389 1.1246722e-38
3.2020094 2.0212092 0.001174795 1.1340001e-38
2.9935734 2.1044946 0.092868358 1.2257976e-38
3.0685923 2.1651514 0.059365291 1.1798807e-38
3.1174552 2.1395354 0.023890827 1.1799529e-38
3.0813982 2.2204227 0.043224078 1.1984284e-38
3.1320844 2.281652 0.040520221 6.1763449e-39
2.7640576 2.3713169 0.076736659 1.1156321e-38
2.8613596 2.3759515 0.068304524 8.9436277e-39
2.9485023 2.3579457 0.05719937 7.7454545e-39
3.0479136 2.3472888 0.045927361 5.4413064e-39
3.1209347 2.3172762 0.050978515 5.2562033e-39
2.7842574 2.4462578 0.078712404 1.0419125e-38
2.8478355 2.4626982 0.04421369 7.0997291e-39
2.9490812 2.4529309 0.015235368 4.0569398e-39
3.0038948 2.406431 0.0029074412 3.8732702e-39
2.7990973 2.503505 0.091548562 9.2213174e-39
2.8498564 2.5498424 0.043836612 6.3621725e-39
2.9103005 2.5280228 0.0070161871 3.2275421e-39
2.8820891 2.6184406 0.0086610094 3.1349919e-39
2.3891931 -2.1145113 0.14276697 1.8443841e-38
2.4058549 -2.1261053 0.19017382 1.8627871e-38
2.3761849 -2.0467818 0.14921668 1.8535318e-38
2.4017169 -2.0846081 0.19599725 1.8812265e-38
2.355536 -1.9404169 0.15042731 1.825873e-38
2.5881569 -1.9068712 0.13805406 1.7427515e-38
2.6277156 -1.9155972 0.14595707 1.3186869e-38
2.3749192 -1.8878006 0.14140633 1.8073976e-38
2.4440351 -1.8675789 0.15255496 1.7888501e-38
2.5669882 -1.8491759 0.14082962 9.5919693e-39
2.6133344 -1.8603987 0.16689052 6.0885283e-39
2.5827293 -1.7735842 0.13936059 1.3830446e-38
2.6174238 -1.7345777 0.15414558 1.5489596e-38
2.6589172 -1.6853844 0.15093981 1.2631152e-38
2.7417657 -1.6481838 0.15048395 1.152444e-38
2.8578653 -1.6337125 0.14802255 1.0695035e-38
2.9158549 -1.6150202 0.14666241 1.0511008e-38
3.1892111 -1.6023035 0.15122938 7.3756476e-39
3.250912 -1.6134853 0.15014501 6.5458883e-39
3.3408682 -1.6156408 0.14932774 5.6232118e-39
2.9578645 -1.5768162 0.15418629 1.0326259e-38
3.040029 -1.5658332 0.14484213 9.4961457e-39
3.1400311 -1.590191 0.15275308 8.0210156e-39
3.3412135 -1.549842 0.148307 5.0685876e-39
3.2798076 -1.4287517 0.15740876 5.6206726e-39
3.3126042 -1.4762828 0.14179233 5.6210327e-39
3.1919339 -1.3105102 0.15960376 5.3440955e-39
3.2319694 -1.3593503 0.14825027 5.5284812e-39
3.1542432 -1.250811 0.15154132 5.3444641e-39
2.9945621 -1.1062963 0.12692732 4.9771333e-39
3.0631058 -1.1452345 0.14905505 4.9764214e-39
3.1151645 -1.1792847 0.16464144 4.9768138e-39
2.9529033 -1.0393735 0.13240427 3.2247143e-39
3.0414414 -1.0358992 0.17479239 4.4229758e-39
3.1075726 -1.0477191 0.19727954 4.2538167e-39
2.9955385 -0.99823046 0.11053161 4.608397e-39
3.0569415 -0.95651305 0.13861467 4.5151616e-39
3.1176972 -0.9298436 0.17439602 5.064835e-39
3.1382484 -0.85107768 0.14826286 4.4219136e-39
3.1511414 -0.75038302 0.14871071 4.6048713e-39
3.1317503 -0.64929646 0.15139313 4.5134058e-39
3.1324883 -0.55035049 0.15105848 4.6974579e-39
3.1537423 -0.45205694 0.1511493 4.78749e-39
3.2040408 -0.40681645 0.1148669 3.9623185e-39
3.1756382 -0.35392874 0.17242706 5.4304155e-39
3.2168617 -0.34715232 0.12320334 4.1460134e-39
3.1925395 -0.26325473 0.17972431 5.0634238e-39
3.2147965 -0.24344774 0.13634883 4.6970894e-39
3.2328684 -0.1501137 0.15150921 5.4321685e-39
3.2639954 -0.053522512 0.1563178 5.9860822e-39
3.3104956 -0.017571162 0.11301284 4.2389194e-39
3.1697669 0.071835101 0.19611353 8.0243353e-39
3.2594845 0.046568148 0.16637348 6.274915e-39
3.3253763 0.051493056 0.11739588 4.1477888e-39
3.1675746 0.10697216 0.19700795 8.2972424e-39
3.2720695 0.14124003 0.18003158 9.0326396e-39
3.3208976 0.15462698 0.13354108 1.0323346e-38
3.291851 0.28318202 0.15291938 1.4839448e-38
3.3162463 0.23490702 0.14931057 1.4747252e-38
3.2623365 0.35080051 0.15075792 1.4102243e-38
2.9991481 0.49712849 0.1955881 1.9727607e-38
3.0462494 0.48972392 0.18620643 1.235053e-38
3.1699762 0.45948526 0.17056777 1.244201e-38
3.2208736 0.43744725 0.1331176 1.2903707e-38
2.9996617 0.50327229 0.19908398 2.0004198e-38
3.0514505 0.54227495 0.18460689 1.9357749e-38
3.1416953 0.55139589 0.16729923 1.3456519e-38
3.2577598 0.55282021 0.13281703 6.1731023e-39
3.1475646 0.64285469 0.18272959 1.9265914e-38
3.2743065 0.64734513 0.13902038 6.6355182e-39
3.3042035 0.69042981 0.11728476 5.7132087e-39
3.188102 0.75585532 0.19664049 1.6408949e-38
3.2392223 0.75042814 0.17408966 1.6592971e-38
3.3214407 0.75158763 0.12549505 6.0819899e-39
2.9892383 0.89203334 0.1959949 1.7609651e-38
3.0579331 0.87968343 0.19196489 8.3886631e-39
3.1587911 0.85779566 0.17707562 1.8068815e-38
3.2384019 0.83450711 0.16148627 1.4103333e-38
3.3294914 0.85065597 0.1244405 6.2670986e-39
2.9882183 0.90400219 0.19487539 4.0555007e-39
3.0526607 0.9531911 0.16897364 1.5856852e-38
3.1397948 0.9398182 0.14659733 1.3458327e-38
3.2637379 0.95227522 0.12464335 6.8206325e-39
3.3053966 0.91152465 0.11957961 6.6355238e-39
3.0514865 1.0512727 0.16663685 1.9178785e-38
3.149394 1.051231 0.12765652 8.1117301e-39
3.2304618 1.0486518 0.11193617 6.5451302e-39
2.995667 1.1818377 0.18783005 4.3317148e-39
3.0383117 1.1486318 0.16031939 1.4842707e-38
3.1604042 1.155724 0.12199521 7.0075405e-39
3.2120216 1.1399727 0.10882376 6.4543737e-39
2.9759979 1.2513525 0.17465363 1.2169038e-38
3.0283659 1.2442418 0.13313752 1.7700396e-38
3.1535847 1.2420598 0.10983221 6.8224374e-39
2.9754336 1.3267758 0.17872524 1.5765401e-38
3.0349839 1.3574605 0.14907554 1.6956359e-38
3.1520219 1.3507102 0.10835516 7.8351474e-39
3.2012753 1.3938044 0.10162421 6.6376916e-39
3.0460124 1.4465014 0.16725786 1.5646896e-38
3.1451571 1.4563758 0.12264348 1.5302235e-38
3.2098989 1.4567256 0.10371938 6.7295271e-39
2.8841467 1.5950184 0.1801476 1.5848925e-38
2.9651051 1.5625002 0.17833222 1.2327492e-38
3.0337784 1.5279902 0.16778444 1.3707901e-38
3.1567073 1.5467449 0.13537708 1.9446339e-38
3.2157927 1.559153 0.10979971 1.0324055e-38
2.8783143 1.6338983 0.1694103 8.2935892e-39
2.9362721 1.6428394 0.14886095 1.4184722e-38
3.0573585 1.6619209 0.13426781 1.8240954e-38
3.156152 1.6591767 0.12531823 1.9908394e-38
3.2129285 1.6319798 0.1129735 1.2813685e-38
2.9704139 1.7507778 0.16936457 1.0503731e-38
3.0435057 1.7514715 0.1222164 1.8435427e-38
3.1347849 1.7080721 0.10306504 1.6499698e-38
2.8867009 1.884717 0.18211368 1.1058354e-38
2.949981 1.8668888 0.16826731 8.1988614e-39
3.0233924 1.8375154 0.15594646 1.2900812e-38
3.1284673 1.8637539 0.11382361 1.9818723e-38
2.8769152 1.9568508 0.1619821 1.3547267e-38
2.9382157 1.939996 0.12969926 1.1052956e-38
3.0494552 1.9589111 0.12174471 1.4284849e-38
3.154175 1.9588845 0.11424216 1.9449948e-38
2.8833754 2.0143423 0.14502157 1.7236532e-38
2.939692 2.0424461 0.13005076 1.5392982e-38
3.0421269 2.001766 0.10502049 1.9357031e-38
3.1122162 2.0021729 0.10736661 1.9541425e-38
2.9887421 2.1101694 0.15953301 1.1797359e-38
3.0237796 2.1613183 0.14895731 1.1798806e-38
3.0588593 2.2172797 0.14349999 1.1892087e-38
3.1328483 2.2825553 0.14653935 5.9912334e-39
2.753722 2.3685048 0.15163788 1.0879736e-38
2.860847 2.3815913 0.15007669 9.1280162e-39
2.9442418 2.36164 0.14911976 8.2986198e-39
3.0432186 2.3447711 0.15081505 5.9026377e-39
3.1294889 2.3204868 0.15188491 5.2565592e-39
2.7748482 2.4513624 0.14772286 8.299008e-39
2.7947927 2.5120244 0.15121172 7.2855875e-39
2.8068821 2.5432389 0.14812183 6.9164463e-39
2.4355783 -2.1373365 0.25412634 1.8813346e-38
2.3967848 -2.013623 0.20993525 1.8719711e-38
2.4209869 -2.0570955 0.24976994 1.8904821e-38
2.3881085 -1.9434333 0.24009697 1.8719348e-38
2.4038465 -1.9391803 0.28559133 1.8811902e-38
2.6338143 -1.9022701 0.24816468 1.1803932e-38
2.3946617 -1.8944615 0.21725358 1.8350204e-38
2.4415569 -1.8631124 0.25108382 1.8257286e-38
2.5406201 -1.8594525 0.25001648 1.7519712e-38
2.6352482 -1.858482 0.25056803 6.6413448e-39
2.5969141 -1.7830095 0.2052711 1.4291427e-38
2.629647 -1.7487562 0.24948056 1.5582156e-38
2.6589487 -1.6782341 0.2490889 1.3092494e-38
2.7492409 -1.6454744 0.24944283 1.1432603e-38
2.8539491 -1.6243073 0.2525233 1.1063818e-38
2.9106181 -1.6128103 0.24527946 1.0602841e-38
3.1932831 -1.6002731 0.21194728 7.4678348e-39
3.2548039 -1.6092936 0.24764563 6.6380713e-39
3.3491535 -1.6160768 0.24870326 5.3466151e-39
2.9452095 -1.5707231 0.25027052 1.023406e-38
3.0461338 -1.5653301 0.25012162 9.0355164e-39
3.1501777 -1.5899663 0.25252837 7.744779e-39
3.2078536 -1.5989362 0.2749216 7.2834407e-39
3.3372452 -1.5486199 0.24974227 4.6998023e-39
3.2714589 -1.4415861 0.24989335 5.6199537e-39
3.3044472 -1.4889207 0.24126741 5.4362827e-39
3.0952463 -1.3132204 0.29181421 1.207075e-38
3.1538069 -1.3295743 0.25394973 6.910757e-39
3.2208109 -1.3741194 0.22785443 5.5281266e-39
3.098238 -1.2978712 0.29800031 1.216294e-38
3.1635077 -1.2548641 0.25520626 8.0164488e-39
3.2022424 -1.2303704 0.24324958 6.0790093e-39
3.170558 -1.1509911 0.25256065 8.0251116e-39
3.1372466 -1.0493084 0.24959821 8.0207802e-39
3.1225677 -0.94828379 0.24894132 8.2905273e-39
3.1393898 -0.84994483 0.24930124 7.7402122e-39
3.1387725 -0.75082082 0.24966253 7.6483501e-39
3.0873291 -0.63084072 0.27417091 9.310276e-39
3.1186895 -0.65913415 0.23722188 8.1100793e-39
3.0925214 -0.55651772 0.26499006 1.0322985e-38
3.1134036 -0.54464728 0.23572935 5.6247574e-39
3.098953 -0.46013632 0.23969312 1.4839486e-38
3.1228633 -0.45098868 0.24927422 8.1100261e-39
3.2152171 -0.4123708 0.2931785 2.9527825e-39
3.128953 -0.34846956 0.24434176 1.0415609e-38
3.206116 -0.3929438 0.29488647 5.3498689e-39
3.0944848 -0.25372815 0.28609541 1.308883e-38
3.1347799 -0.24899922 0.24432983 1.1060585e-38
3.1543491 -0.15079382 0.25103754 9.7694675e-39
3.2023523 -0.14778659 0.20329647 7.6477111e-39
3.0783911 -0.031873342 0.27524257 6.1731121e-39
3.143018 -0.058132157 0.23900971 1.1705918e-38
3.206073 -0.063978761 0.20291241 6.9140879e-39
2.9992139 0.079165518 0.29424492 3.4068817e-39
3.0470238 0.052367654 0.26455858 7.9244605e-39
3.1250067 0.043141879 0.21683192 1.6961052e-38
3.0803356 0.11164451 0.26066113 1.9173006e-38
3.1523774 0.14322977 0.25268078 1.3641268e-38
3.2349434 0.17904659 0.23868102 1.4839804e-38
3.2632475 0.2530832 0.25716937 1.5115675e-38
3.3101101 0.23625255 0.21665592 1.0598097e-38
3.1883886 0.39281738 0.27040789 1.3549069e-38
3.2440772 0.34746996 0.24815603 1.437847e-38
2.9857891 0.49339503 0.25788522 1.6961031e-38
3.0549378 0.47580415 0.25575146 1.142858e-38
3.1456783 0.43429303 0.24550602 1.299554e-38
3.2019534 0.40325123 0.20558019 1.3640908e-38
2.9829597 0.52179551 0.26296431 1.7608944e-38
3.0280871 0.56393838 0.24016617 1.1619116e-38
3.0826421 0.62504381 0.25126636 9.1283819e-39
3.1170945 0.67303205 0.24646731 9.4960868e-39
3.1256311 0.75126374 0.24843037 7.5614415e-39
2.9709861 0.88333583 0.25244081 1.4566481e-38
3.0655756 0.86008984 0.25192344 6.8220688e-39
3.1068158 0.82052481 0.24379744 7.2848603e-39
2.9883101 0.90997237 0.2580193 2.6725676e-39
3.0224223 0.95698172 0.24881127 4.3349672e-39
2.9848611 1.0832355 0.26632926 1.180533e-38
3.0312755 1.0422194 0.24677125 1.7893842e-38
2.9951303 1.152849 0.25309649 4.7944993e-39
3.0025003 1.1374526 0.22221854 3.5959589e-39
2.9789636 1.2480359 0.25008467 1.1340009e-38
2.984046 1.3208929 0.24644466 1.2354925e-38
3.0239277 1.3724927 0.25401139 1.3184684e-38
3.0686088 1.4355075 0.23988196 1.2812652e-38
3.118736 1.4789727 0.26009953 1.2261638e-38
2.8745458 1.5883832 0.2490432 1.4285213e-38
2.9498208 1.552231 0.24574551 1.1968078e-38
3.0414567 1.5232254 0.24895413 1.1417791e-38
3.1365824 1.5267121 0.26633531 1.1246035e-38
2.8770854 1.6336592 0.23752905 7.7415042e-39
2.9167867 1.6790212 0.26039276 7.0042965e-39
2.9654362 1.7520937 0.25293243 8.2031928e-39
3.000227 1.7975333 0.2553896 8.9400194e-39
2.8929796 1.8893123 0.22237596 7.1890451e-39
2.9628468 1.8676001 0.2491851 4.7912524e-39
3.0087156 1.8363883 0.25323638 7.6489442e-39
2.8644209 1.9470085 0.25046223 1.2259062e-38
2.9190786 1.9044231 0.2853553 5.0681953e-39
2.8744037 2.0186536 0.25080305 1.3918575e-38
2.9379935 2.0718632 0.25005734 1.198247e-38
2.9903276 2.1251988 0.26559275 1.1706607e-38
3.0128396 2.1617424 0.24283201 1.1338549e-38
3.0608747 2.2202153 0.25065267 1.1339636e-38
3.131428 2.2804756 0.25075048 5.9923124e-39
2.7514958 2.3674321 0.24899969 1.1063408e-38
2.860985 2.3863149 0.24934286 9.2202118e-39
2.9410605 2.3694837 0.25034857 8.482651e-39
3.0455499 2.3541775 0.25006342 6.3628928e-39
3.1318796 2.3225236 0.25125596 5.4409463e-39
2.7670412 2.4505258 0.25374854 4.8870592e-39
2.7845643 2.5184808 0.24926417 5.6253515e-39
2.803854 2.5431559 0.21136542 4.7037554e-39
2.4899642 -2.2089796 0.32605961 1.9089574e-38
2.5323296 -2.2373154 0.37086129 1.8719708e-38
2.4768064 -2.1432681 0.34373641 1.9457993e-38
2.505825 -2.1820507 0.38423318 1.9826414e-38
2.4507084 -2.0526378 0.34972343 1.9365796e-38
2.4156749 -1.9448588 0.34882566 1.9088849e-38
2.663579 -1.9037843 0.35482502 1.1619902e-38
2.4470637 -1.8633586 0.34921622 1.8626789e-38
2.5359449 -1.8500165 0.35299918 1.7981411e-38
2.6587231 -1.8585324 0.34919503 6.733546e-39
2.6517241 -1.7517481 0.34973165 1.5674712e-38
2.669193 -1.6781656 0.34760246 1.336944e-38
2.7525198 -1.6493987 0.34956872 1.1340763e-38
2.8486912 -1.6160178 0.35197806 1.0971618e-38
2.9073088 -1.6046357 0.33668479 1.0326608e-38
3.2656009 -1.609818 0.35004354 6.6380685e-39
3.3546112 -1.6164151 0.35119241 5.5302846e-39
2.9458559 -1.572402 0.35065392 1.0050019e-38
3.0489206 -1.5647482 0.35094821 8.8514783e-39
3.1531579 -1.5888464 0.3497591 7.8369691e-39
3.209954 -1.5985919 0.34965089 7.2834365e-39
3.3421078 -1.5485866 0.35025495 4.6994408e-39
3.270195 -1.440727 0.34067711 5.6195852e-39
3.310302 -1.4824216 0.35666448 5.2515285e-39
3.0963986 -1.3146737 0.34557325 1.0960086e-38
3.1306312 -1.3515552 0.35320774 1.0320115e-38
3.2098138 -1.3970925 0.37280104 5.4355485e-39
3.096998 -1.2910792 0.35542738 1.1325992e-38
3.1436753 -1.2448148 0.34660351 8.2965151e-39
3.2109609 -1.2139018 0.38537052 9.9610937e-39
3.1781056 -1.14303 0.31754664 8.0238784e-39
3.2226169 -1.1584231 0.36618873 8.8543776e-39
3.1647561 -1.0440736 0.34635761 8.3015569e-39
