# .PCD v0.7 - Point Cloud Data file format
VERSION 0.7
FIELDS x y z rgb
SIZE 4 4 4 4
TYPE F F F F
COUNT 1 1 1 1
WIDTH 1063
HEIGHT 1
VIEWPOINT 0 0 0 1 0 0 0
POINTS 1063
DATA ascii
3.3573232 0.62070107 0.65173554 1.7063062e-38
3.4384153 0.67114192 0.65282065 1.0977792e-38
3.1658714 0.78940111 0.64598417 1.7523334e-38
3.2495801 0.75615788 0.65267366 1.8076508e-38
3.347131 0.72433287 0.65433884 1.7800278e-38
3.4218624 0.71022552 0.6425972 1.3099017e-38
3.0603106 0.85062963 0.64793462 1.687724e-38
3.1167574 0.8049984 0.6571545 1.7338943e-38
3.0526717 0.94602478 0.6504699 1.5953113e-38
2.9614902 1.0796818 0.65176255 1.4016634e-38
3.0704849 1.044994 0.64874762 4.3375372e-39
3.1030502 1.0229982 0.65004814 8.7614827e-39
2.9164238 1.1435044 0.64943874 1.1157102e-38
2.9596727 1.252138 0.65022355 8.8518342e-39
2.9775293 1.3452637 0.6509937 8.4826944e-39
3.001863 1.3973067 0.63971341 7.9295234e-39
3.0213408 1.4493041 0.64915293 7.6529365e-39
3.0678556 1.5370044 0.64963305 7.0072098e-39
3.1104233 1.5897713 0.64919281 6.3618432e-39
2.3722215 1.6925086 0.60654098 8.8503811e-39
2.4315772 1.6944633 0.60502595 1.032227e-38
2.7778056 1.6985738 0.61911279 9.3052552e-39
2.8180902 1.6907159 0.65696818 9.1194136e-39
3.1644692 1.6527723 0.65030491 5.5317252e-39
2.0532558 1.7753896 0.60911012 9.8623624e-39
2.1528587 1.7730653 0.61313713 9.3099131e-39
2.249418 1.7666599 0.61614388 9.0326088e-39
2.3576641 1.7522942 0.62409276 7.0064769e-39
2.4481716 1.7412888 0.63996953 4.7973943e-39
2.5521402 1.7529283 0.64438242 7.2848771e-39
2.6610236 1.7546601 0.64964092 8.0213701e-39
2.7520177 1.7243038 0.65734535 7.1887326e-39
2.8640354 1.7124004 0.62415296 6.3578789e-39
2.9510818 1.7463634 0.63765121 4.3292135e-39
3.0566046 1.767364 0.64988393 3.8693172e-39
3.1454606 1.7566512 0.65096384 3.4094236e-39
3.2136514 1.7352201 0.64531183 4.1480719e-39
2.0540454 1.8237052 0.6235429 9.7701724e-39
2.1590865 1.8505895 0.65024841 2.7655004e-39
2.2465613 1.8563414 0.67142302 1.8446245e-39
2.3575532 1.850796 0.67216039 2.3963521e-39
2.4269159 1.8321491 0.68139672 7.0064797e-39
2.5381281 1.8179053 0.69325697 7.3803279e-39
2.621371 1.8049847 0.69585001 6.5498442e-39
2.1821783 1.9347552 0.68550444 6.4572254e-40
2.2295468 1.9210269 0.69096547 1.1067021e-39
7.7440348 -2.5047989 0.78209102 5.8097512e-39
7.3557119 -2.4110355 0.75879747 1.3840064e-39
7.4606123 -2.4292407 0.77503425 1.2918108e-39
7.5537181 -2.4596031 0.76831055 1.0152239e-39
7.653676 -2.458096 0.74206662 1.2541471e-38
7.7249899 -2.4441805 0.77089655 1.9639098e-38
6.4569082 -2.3166108 0.78719479 6.4644561e-40
6.5394707 -2.3652539 0.79720902 6.4644561e-40
6.6239843 -2.3288746 0.79320443 7.3864124e-40
7.0704346 -2.3226345 0.75486332 1.2914521e-39
7.1498666 -2.3384287 0.76332784 1.4758433e-39
7.2504907 -2.3608792 0.77407062 1.4762035e-39
7.3585734 -2.3854551 0.78561109 1.6602346e-39
7.6838899 -2.3460777 0.76196575 2.1852518e-38
7.7067399 -2.3862004 0.76813287 2.2497167e-38
6.0803375 -2.2079129 0.71933228 6.4644561e-40
6.1563072 -2.2177625 0.741629 6.4644561e-40
6.2663713 -2.2363455 0.75642419 6.4644561e-40
6.3428564 -2.2688429 0.76637036 6.4644561e-40
6.468998 -2.2805967 0.77464437 6.4644561e-40
6.5629978 -2.2198353 0.78116918 9.230325e-40
6.6577249 -2.2190371 0.77638865 1.1074238e-39
6.7517576 -2.2265961 0.75110835 1.2918136e-39
6.8462119 -2.2456944 0.75067025 1.4758433e-39
6.9385309 -2.2592652 0.76481247 1.568039e-39
7.0431519 -2.2831976 0.77901822 1.7520701e-39
7.1075668 -2.293817 0.78958923 1.6602304e-39
7.4920874 -2.2125506 0.77286351 1.798102e-38
7.5503297 -2.2461073 0.77342743 2.0562139e-38
7.6240411 -2.2908094 0.77153534 2.2129105e-38
5.8922276 -2.1141045 0.70557845 6.4644561e-40
5.9512668 -2.1195416 0.77989179 3.2282806e-39
6.0283747 -2.1508133 0.73750609 1.1077825e-39
6.1648583 -2.1719241 0.72490788 7.3864124e-40
6.2389488 -2.1326766 0.72684878 9.230325e-40
6.3787498 -2.150631 0.74083966 1.0152281e-39
6.4698329 -2.1398816 0.77342212 1.199618e-39
6.5491343 -2.1433215 0.77620566 1.2918136e-39
6.6474957 -2.1718054 0.77229834 1.3832904e-39
6.7491012 -2.1975729 0.75950336 1.2921709e-39
6.8191361 -2.1909001 0.7870546 1.7520701e-39
7.4549046 -2.1800807 0.78156942 1.3924414e-38
5.8979654 -2.0778732 0.79986215 4.4279028e-39
5.9484773 -2.0765193 0.79421312 4.8885208e-39
6.0148911 -2.071341 0.79836422 5.6257271e-39
6.4561696 -2.0785642 0.79099572 1.3840106e-39
6.5459876 -2.0936682 0.79016656 1.5684005e-39
1.5965631 -1.412025 0.74972934 1.1989419e-38
1.600656 -1.4101863 0.78733999 1.1989058e-38
1.5871236 -1.3556707 0.75116789 1.1251486e-38
1.6013019 -1.3454324 0.79231095 1.1805379e-38
1.5629632 -1.240854 0.74931169 8.3905128e-39
1.5846335 -1.1491444 0.74884444 1.0695397e-38
1.5957308 -1.0820854 0.76127708 1.0511004e-38
1.6218542 -1.0374624 0.74624366 1.0326613e-38
1.6663654 -0.96349984 0.74922973 1.014222e-38
1.712436 -0.91630578 0.75346196 1.0142219e-38
1.7605662 -0.86093181 0.74729919 1.0050023e-38
1.8116078 -0.81351745 0.76829201 1.0049664e-38
1.7990636 -0.79862684 0.70337671 1.0234414e-38
1.8416014 -0.74990255 0.74960822 9.4046521e-39
1.882952 -0.68630379 0.74637729 1.0142213e-38
1.9227756 -0.63786614 0.7508105 1.005002e-38
1.9571891 -0.5486396 0.74948645 9.0358696e-39
1.9944524 -0.49131322 0.74501836 9.9581832e-39
2.0120714 -0.44223115 0.75095373 9.1287841e-39
2.0675271 -0.35214481 0.74732292 9.9581832e-39
2.1020224 -0.30629319 0.79149961 1.0326606e-38
2.0962729 -0.29231113 0.73011822 1.069575e-38
2.1232204 -0.24554849 0.75203061 1.0327326e-38
2.1807833 -0.1803821 0.74538398 9.1291428e-39
2.2302141 -0.1313574 0.75309068 9.3131739e-39
2.2772746 -0.083581261 0.74450117 9.4968463e-39
2.3415124 -0.035440683 0.75258112 9.589042e-39
2.3869312 0.01176318 0.73923254 9.6812376e-39
2.4349217 0.059208296 0.75234228 9.6812376e-39
2.4782302 0.11322369 0.74699217 9.405015e-39
2.5617011 0.16474189 0.75132322 1.1989402e-38
2.5685914 0.24934907 0.74902707 1.0417013e-38
2.5772338 0.33075982 0.74690586 1.0966936e-38
2.6415949 0.37865949 0.75031078 1.1339695e-38
2.7142739 0.39586589 0.77927929 1.41063e-38
2.76373 0.41295713 0.74630374 2.1667052e-38
2.854285 0.43551499 0.75240642 2.2774121e-38
2.9602273 0.46950629 0.74994189 2.2590808e-38
3.0165274 0.4932116 0.76011056 2.2498972e-38
3.0571191 0.53020018 0.74571335 2.1579179e-38
3.1336446 0.57551557 0.76005477 2.0750506e-38
3.2437093 0.59209424 0.72134769 1.7799904e-38
3.1773467 0.61021364 0.76958132 2.0382087e-38
3.2523019 0.63898593 0.77553403 1.9183915e-38
3.3493061 0.66065294 0.76948851 1.5218795e-38
3.4215317 0.67043602 0.73968577 1.1991944e-38
3.1806507 0.79313672 0.72861445 1.7983952e-38
3.2541404 0.752877 0.75284815 1.8630396e-38
3.3457992 0.71130824 0.74144268 1.8169775e-38
3.4100659 0.70382768 0.73119396 1.5495741e-38
3.0852854 0.86020195 0.71929139 1.715311e-38
3.132575 0.83837283 0.76092392 1.7522612e-38
3.2024674 0.80064285 0.78774679 1.8261618e-38
3.0803545 0.94456345 0.73068589 1.623042e-38
3.1145921 0.94404632 0.77585101 1.6138586e-38
2.9609852 1.0739752 0.75003171 1.3464177e-38
3.0553336 1.0352693 0.75056374 3.1393556e-39
3.1271262 1.0146288 0.75365895 8.9458698e-39
2.8907382 1.1221827 0.76212525 1.1710276e-38
2.9172568 1.147086 0.7453441 1.0419534e-38
2.9644635 1.2515244 0.75053555 8.3908589e-39
2.9849339 1.3426715 0.75196892 8.1139133e-39
3.0024319 1.3929573 0.74494129 7.5607409e-39
2.9975424 1.4090847 0.7856223 7.5607381e-39
3.0157413 1.4486123 0.7464695 7.3763468e-39
3.0699339 1.5356808 0.74877876 6.5465862e-39
3.1096685 1.5849037 0.75035119 5.9926949e-39
2.7728591 1.6819243 0.76832414 5.2500922e-39
2.8171761 1.6766717 0.74465901 8.6591571e-39
3.1627679 1.6468322 0.75020975 5.1625769e-39
3.2021046 1.6967462 0.75762302 4.4246532e-39
2.6797071 1.7955359 0.70945728 6.1810645e-39
2.7752683 1.7457459 0.74144757 3.7811012e-39
2.8197837 1.7753284 0.76524806 4.5211886e-39
2.9588101 1.7368784 0.74693805 4.328845e-39
3.0658617 1.7684407 0.74933273 3.7774747e-39
3.1408608 1.7463962 0.75272936 3.409418e-39
3.2094433 1.7254984 0.74625176 3.9633163e-39
2.2781253 1.8897451 0.70887965 3.8747206e-39
2.3463213 1.8915466 0.71888542 3.1367954e-39
2.4581673 1.871847 0.74182731 6.2689063e-39
2.551841 1.8516023 0.7496779 7.933136e-39
2.6492701 1.8252821 0.75256145 6.5498442e-39
2.7443967 1.8188494 0.76198977 6.5512889e-39
2.8106604 1.8232062 0.77729797 9.4122443e-39
2.1946967 1.9644514 0.70701826 1.384005e-39
2.2517304 1.9575447 0.73653489 2.858775e-39
2.3512702 1.9407477 0.76680726 3.2264771e-39
2.4442403 1.916396 0.76725411 3.7792865e-39
2.2684236 2.0176096 0.78646272 1.75171e-39
2.3054061 2.0058475 0.79557681 5.5244931e-40
6.6843934 -2.4272735 0.86794156 7.3864124e-40
6.7613373 -2.4356918 0.85233998 6.4644561e-40
6.8452072 -2.4518945 0.85999411 6.4644561e-40
6.9635358 -2.4314916 0.85506737 6.4644561e-40
7.0270166 -2.4340556 0.85564661 7.3863843e-40
7.5465865 -2.4137242 0.82746917 6.4572534e-40
7.659431 -2.4226451 0.84791142 9.6808859e-39
7.7326307 -2.4369097 0.82338679 2.0007159e-38
6.4536071 -2.3294613 0.84259087 1.0155883e-39
6.5400162 -2.3424513 0.84243524 8.311956e-40
6.6460896 -2.3621881 0.83929938 7.3864124e-40
6.7418375 -2.3623974 0.8462131 9.2303109e-40
6.8578382 -2.3598254 0.84369844 9.2303109e-40
6.9379978 -2.3759015 0.84747893 8.3083687e-40
7.1960526 -2.3119926 0.80980068 1.660236e-39
7.3483977 -2.3376217 0.84177464 1.8439056e-39
7.468473 -2.3591042 0.86335331 1.383289e-39
7.5399971 -2.3735764 0.87022316 1.2907318e-39
7.66924 -2.3356681 0.85733479 2.1298264e-38
7.7064676 -2.3738773 0.84939116 2.3141816e-38
6.0939469 -2.2128549 0.82644039 3.1357276e-39
6.1289887 -2.2167132 0.8223384 2.5829126e-39
6.2387486 -2.247365 0.8303079 2.1219344e-39
6.3582582 -2.2606034 0.8347472 1.8453461e-39
6.4468298 -2.2516689 0.83335924 2.3063271e-39
6.5485272 -2.2322476 0.83926564 2.1219358e-39
6.645494 -2.2360413 0.82507467 1.291815e-39
6.7312655 -2.2828259 0.82910925 1.5684005e-39
6.9977398 -2.2280867 0.81776983 2.2126909e-39
7.0353942 -2.233259 0.82898706 2.028657e-39
7.1478019 -2.240499 0.85740143 1.6602346e-39
7.2355599 -2.265548 0.86989975 1.0145093e-39
7.5623832 -2.2288442 0.85328621 2.2958507e-38
7.6132669 -2.2755141 0.84864116 2.3142179e-38
5.7752442 -2.1054583 0.87486804 2.7669451e-39
5.8468962 -2.1151266 0.84325391 3.1360849e-39
5.9301295 -2.1341195 0.81204146 3.3211951e-39
6.0285611 -2.1774838 0.81609446 3.0438907e-39
6.1555328 -2.1241593 0.82688463 4.150597e-39
6.2560863 -2.1437666 0.83528543 3.8740087e-39
6.3509312 -2.1524277 0.86740685 2.1222917e-39
6.4636164 -2.1459968 0.86215764 1.1999781e-39
6.5346456 -2.1703589 0.83479375 1.0155869e-39
6.6475658 -2.1570323 0.81037945 1.5680404e-39
6.7322879 -2.117655 0.82560319 2.0293773e-39
6.8658156 -2.1761396 0.8222 1.9368215e-39
6.9442487 -2.1559665 0.86660767 1.3840092e-39
7.0795264 -2.1775255 0.89371634 3.6949718e-40
7.3829336 -2.1057577 0.8947376 2.2775195e-38
7.4595108 -2.1350076 0.85961217 1.7150902e-38
7.5206275 -2.1682944 0.85407633 1.9363598e-38
5.6499467 -2.0449672 0.88694018 2.6747495e-39
5.7537799 -2.0571032 0.88785636 3.043532e-39
5.851697 -2.0642223 0.85496712 3.9662057e-39
5.9346275 -2.0505433 0.83795321 5.072912e-39
6.0254745 -2.0589395 0.8444922 4.9803563e-39
6.148788 -2.0937788 0.86654782 3.3204762e-39
6.3629017 -2.0365634 0.85255206 1.199618e-39
6.4296594 -2.062989 0.82631969 1.3836505e-39
6.5464373 -2.0324104 0.84534395 1.9368215e-39
6.6325617 -2.0543625 0.85168278 2.0290171e-39
6.7241406 -2.0827875 0.85368222 1.9371816e-39
6.8278909 -2.0902867 0.89149112 1.5680376e-39
7.356997 -2.038281 0.89276421 1.1804994e-38
7.4475789 -2.0802364 0.88690734 1.2265252e-38
7.5222092 -2.091222 0.87906033 7.8395026e-39
6.3322306 -1.9669253 0.86822999 1.3840078e-39
6.4359536 -1.97181 0.87077242 1.9368201e-39
6.5013475 -1.9856216 0.88169068 1.9371788e-39
7.3247881 -1.9940689 0.89825815 8.394477e-39
4.862885 -1.7026881 0.86995304 1.8439098e-39
4.9479322 -1.7244343 0.88515311 1.7517142e-39
5.025528 -1.7524004 0.89179909 1.8439098e-39
6.2833333 -1.7075187 0.88836652 2.3142539e-38
6.3596292 -1.720603 0.89152241 2.295815e-38
6.4400749 -1.7392708 0.89196289 2.2958147e-38
4.8372173 -1.6843802 0.87117338 1.6595185e-39
5.9853859 -1.6035311 0.88943177 2.3234374e-38
6.0570345 -1.6227478 0.8869741 2.3234374e-38
6.1448622 -1.639845 0.88733381 2.1206071e-38
6.2227273 -1.6506962 0.88728172 1.6965073e-38
6.316175 -1.6739107 0.89302665 2.1667412e-38
5.7571664 -1.5174644 0.88935417 2.1759241e-38
5.8467016 -1.5373654 0.88250387 2.0469223e-38
5.9470062 -1.5646381 0.88585502 1.9178486e-38
6.033185 -1.5815227 0.88434172 1.807178e-38
6.1384697 -1.5896193 0.88202316 3.7814572e-39
1.5970351 -1.4125844 0.82062602 1.2081251e-38
1.6051298 -1.4121343 0.85760075 1.1988694e-38
5.6817946 -1.4839476 0.89622539 1.9547263e-38
5.7324085 -1.4902474 0.89318132 1.7796263e-38
5.8149943 -1.4991584 0.89766771 1.595379e-38
1.5954115 -1.3445621 0.82518637 8.8536713e-39
1.6083261 -1.3645099 0.85063195 1.1251125e-38
1.5734168 -1.2404023 0.83015174 8.4823455e-39
1.5853586 -1.1482685 0.83247155 1.0418808e-38
1.5915527 -1.0716966 0.83433497 1.0326613e-38
1.6238475 -1.0252169 0.84295398 9.9578301e-39
1.6623948 -0.96650368 0.84913868 9.7730759e-39
1.7230384 -0.92152596 0.85546362 8.850042e-39
1.7688978 -0.8731854 0.83633363 9.3110173e-39
1.8208722 -0.83002752 0.85928136 8.0188408e-39
1.8589892 -0.75037766 0.85048741 8.2979444e-39
1.9001738 -0.70096284 0.89916158 9.1277037e-39
1.8905733 -0.69067687 0.83299041 9.6812376e-39
1.9271556 -0.64519936 0.85164505 9.6812376e-39
1.9658943 -0.55141068 0.84808922 8.9436739e-39
2.0022063 -0.50487238 0.87528527 9.3124551e-39
1.9981694 -0.49649265 0.80937117 9.7734332e-39
2.0226123 -0.44944382 0.85085773 9.0358682e-39
2.0811536 -0.36649004 0.84903747 9.7737905e-39
2.1043274 -0.31458893 0.85277778 1.023477e-38
2.1300292 -0.25150213 0.84904522 1.0235129e-38
2.2067082 -0.20677625 0.88672483 8.6681675e-39
2.1920469 -0.18991642 0.81912422 9.3135327e-39
2.2430456 -0.14815231 0.84628451 8.7596442e-39
2.3080752 -0.11295432 0.89140922 6.9142967e-39
2.2879915 -0.090040937 0.82641155 9.2202608e-39
2.3520143 -0.049251322 0.84861183 9.0355122e-39
2.4075608 -0.0081748487 0.8708446 9.035871e-39
2.3983088 0.0010252721 0.80618477 9.589042e-39
2.4486437 0.04963797 0.8495096 9.3124551e-39
2.4939835 0.10575818 0.83511657 9.4042906e-39
2.5566828 0.15056346 0.84937876 9.4043018e-39
2.6076357 0.18964103 0.87038153 1.0325175e-38
2.5916519 0.24224536 0.81903315 9.4021354e-39
2.6153679 0.25230181 0.86650598 1.0322646e-38
2.5970788 0.32464555 0.80911112 1.105805e-38
2.618387 0.33556342 0.85595661 1.096622e-38
2.7122345 0.38925067 0.81703967 1.1063843e-38
2.7849514 0.40497211 0.82769626 1.2631897e-38
2.8596272 0.42565271 0.84017181 1.4477615e-38
2.9583766 0.45981705 0.85151547 1.8349827e-38
3.023699 0.48931298 0.85410184 2.0470319e-38
3.0700068 0.52177268 0.84532279 2.2498973e-38
3.1393862 0.57124531 0.85117733 2.1763572e-38
3.1906936 0.60672826 0.85041553 2.1211839e-38
3.2676141 0.65954059 0.85331267 2.0382807e-38
3.301281 0.69309258 0.81186539 1.9552697e-38
3.2614992 0.75159806 0.84875506 1.9091727e-38
3.3000743 0.70126212 0.80461186 1.9368669e-38
3.1737831 0.8558799 0.84378856 1.7615167e-38
3.212662 0.8145833 0.86735952 1.8261258e-38
3.0641658 0.98813599 0.86874491 6.9179219e-39
3.1584201 0.95197839 0.85045147 1.6046749e-38
3.2017083 0.94017702 0.8949489 1.6692845e-38
2.9694483 1.076075 0.84973478 1.3371619e-38
3.0388949 1.0271492 0.84881675 4.7066785e-39
3.1309357 1.0065116 0.81697196 9.499045e-39
2.8937511 1.1256763 0.85229629 9.3131851e-39
2.9222786 1.1478142 0.85074562 1.0511728e-38
2.9568336 1.2502004 0.85125905 8.114272e-39
2.982321 1.3485869 0.84988189 7.6532939e-39
2.9964311 1.4088091 0.84608966 7.3767056e-39
3.0184598 1.4565477 0.85043025 7.1001173e-39
3.0737045 1.5303123 0.84708709 6.4543891e-39
3.1159956 1.5799307 0.85240632 5.7164654e-39
2.7781823 1.6652011 0.84935415 7.2787506e-39
2.8271251 1.6575365 0.83886135 7.6478848e-39
2.9049287 1.6951748 0.85411531 4.8827376e-39
3.1658254 1.6412456 0.84697384 4.9781829e-39
3.2070377 1.690544 0.85798204 4.2402605e-39
2.7731948 1.7324311 0.83485901 3.0453453e-39
2.8138173 1.7707245 0.86575484 8.3026598e-39
2.9597986 1.7258183 0.84738588 4.0529784e-39
3.072962 1.7672842 0.85294133 3.7774761e-39
3.1374431 1.7385767 0.84926277 3.409418e-39
3.2106109 1.7174951 0.85082299 3.8711178e-39
2.4875543 1.8738706 0.85772002 6.5440526e-39
2.5476987 1.8608365 0.84479696 6.2700049e-39
2.645817 1.8617392 0.85077745 5.0718344e-39
2.7531178 1.8604441 0.86052531 4.3339051e-39
2.826194 1.8426903 0.85538864 7.473618e-39
2.2966549 1.9981173 0.89128637 1.28965e-39
2.3626444 1.9855781 0.85865337 1.7506268e-39
2.4435782 1.9374864 0.85065377 2.1194079e-39
2.2820747 2.0240228 0.85331488 9.2123043e-40
2.3279142 2.0048215 0.83718842 2.0279325e-39
7.4347811 -2.3028858 0.90102094 5.4409729e-39
7.55476 -2.3236871 0.91556311 1.7057618e-38
7.6451917 -2.3312943 0.91693628 2.1298621e-38
7.7066274 -2.3648541 0.90616769 2.2957424e-38
7.2689013 -2.2200301 0.92287964 5.7171996e-39
7.3699026 -2.2349789 0.93963861 1.4292105e-38
7.4641266 -2.2389009 0.95147431 1.9824922e-38
7.5569143 -2.2472844 0.93642443 2.2773753e-38
7.6154418 -2.2819486 0.9207145 2.3142176e-38
6.1893082 -2.1046176 0.9679507 1.6605975e-39
6.2634921 -2.1201925 0.96143287 1.1077825e-39
6.3494215 -2.1382942 0.95756841 9.2339123e-40
6.467947 -2.1400864 0.9548322 1.0152281e-39
6.5035682 -2.1645663 0.9242149 9.2374856e-40
6.9718952 -2.1243153 0.91029215 9.2266816e-40
7.0339732 -2.1482944 0.90318531 1.4762035e-39
7.1578379 -2.1403687 0.96631724 5.9937809e-39
7.2691865 -2.1533363 0.97437727 1.3185758e-38
7.3573213 -2.1422262 0.96424526 1.8441994e-38
7.4396648 -2.1704736 0.94169676 1.8811136e-38
7.5143399 -2.1974411 0.91065723 2.3142538e-38
5.5709562 -2.0068707 0.92429137 2.3970836e-39
5.6575279 -2.0226741 0.91413146 2.7662248e-39
5.7478862 -2.0143595 0.91816902 2.9509776e-39
5.8454962 -2.0264847 0.92929983 3.2275645e-39
5.9421997 -2.0373363 0.95122123 2.9509762e-39
6.0400572 -2.0538371 0.96955687 2.121217e-39
6.1545968 -2.0617261 0.97221476 1.3836505e-39
6.266542 -2.0549138 0.99629468 1.1074238e-39
6.3728771 -2.027302 0.93293875 1.199618e-39
6.4276333 -2.0638759 0.96422464 1.199618e-39
6.6974988 -2.0068808 0.92761654 1.937176e-39
6.747303 -2.0256429 0.93263113 1.7524302e-39
6.8511453 -2.0408261 0.9565953 1.3836463e-39
6.953351 -2.0855129 0.94503224 1.7527876e-39
7.0662165 -2.0535522 0.9582656 1.3093928e-38
7.1541619 -2.035347 0.95899105 2.1668846e-38
7.2539363 -2.0473502 0.93432897 1.816757e-38
7.3304181 -2.0636716 0.90686017 1.9733818e-38
5.3605118 -1.9156107 0.93318963 2.1204967e-39
5.4573269 -1.9418256 0.93598038 2.3048879e-39
5.5500941 -1.9633169 0.93815523 2.3052481e-39
5.6496553 -1.9684516 0.94851995 2.3048879e-39
5.7447553 -1.9631011 0.96046448 1.8442699e-39
5.8558245 -1.9587256 0.98256683 1.1074238e-39
5.9435377 -1.9395999 0.9894408 1.0152281e-39
6.0505219 -1.9631426 0.98899949 1.0152281e-39
6.1549225 -1.9804624 0.99450517 1.1074238e-39
6.3425055 -1.9484974 0.94453901 1.3840078e-39
6.4328475 -1.9321361 0.94352072 2.028657e-39
6.542069 -1.9397132 0.94811386 2.1204925e-39
6.6493549 -1.9561789 0.97214603 1.6595171e-39
6.758954 -1.9264866 0.97508633 1.7610079e-38
6.8551655 -1.9263878 0.9502666 2.3050342e-38
6.9522986 -1.9451324 0.94286287 2.2866311e-38
7.0488486 -1.9577675 0.93975264 2.0839086e-38
7.1574407 -1.9579554 0.92589092 1.2821305e-38
7.2415795 -1.9787353 0.91414529 7.8427424e-39
5.1547718 -1.8147513 0.90975332 1.9361054e-39
5.251462 -1.8340437 0.93650454 1.5673229e-39
5.3436279 -1.8296913 0.9567681 1.1989005e-39
5.4506245 -1.8411685 0.96314508 1.1070636e-39
5.5468149 -1.8404858 0.97843945 1.0148694e-39
5.638586 -1.8611298 0.98136121 9.230325e-40
5.7208824 -1.8916757 0.9863174 1.0152281e-39
5.929781 -1.8823186 0.99449402 1.1074238e-39
6.0127506 -1.8884422 0.9975906 1.1996194e-39
6.2945552 -1.8589166 0.95655125 1.6602346e-39
6.32831 -1.8693933 0.96779102 2.1208526e-39
6.4346232 -1.853839 0.98403507 8.4823497e-39
6.5484252 -1.8408101 0.96975297 2.0652894e-38
6.6517777 -1.857828 0.95712161 2.3049622e-38
6.7393656 -1.8721203 0.94169158 2.2958147e-38
6.8252912 -1.8592613 0.923141 2.0653618e-38
6.9729328 -1.8832014 0.93558592 1.9548349e-38
4.9382472 -1.7077026 0.90836668 6.4536661e-40
5.0497446 -1.7452481 0.9116596 1.290736e-39
5.1495404 -1.772683 0.92523581 1.290736e-39
5.2307673 -1.787165 0.94708079 1.0141491e-39
5.4529018 -1.7165431 0.99910516 3.6985872e-40
5.5374494 -1.7950836 0.9986189 9.230325e-40
5.7783947 -1.7106252 0.9962126 1.3840106e-39
5.8103247 -1.7242775 0.99753493 1.3840106e-39
6.0586343 -1.7088089 0.97896975 5.901228e-39
6.1509151 -1.7297053 0.97416282 1.4659454e-38
6.2575288 -1.746776 0.96634758 1.6595567e-38
6.3457718 -1.7560077 0.95310009 2.3141458e-38
6.4479032 -1.779261 0.94414097 2.3049984e-38
6.5323958 -1.7531276 0.90474945 2.0839086e-38
6.6253557 -1.7749503 0.90806639 1.9824576e-38
5.6725702 -1.6179351 0.99023819 1.6598773e-39
5.755827 -1.6639935 0.99022466 2.8587806e-39
5.8561335 -1.6289557 0.96686882 1.4751291e-38
5.9605231 -1.6431431 0.96025419 1.5950916e-38
6.051579 -1.6492041 0.9434948 2.3142176e-38
6.1552815 -1.6667789 0.93645138 2.1390101e-38
6.2404432 -1.6707926 0.92186117 1.6595929e-38
6.3314443 -1.6140355 0.92258799 1.1996166e-39
5.4595313 -1.5178137 0.99244338 7.382811e-40
5.5642219 -1.5425037 0.98515129 7.0072224e-39
5.6601338 -1.5347254 0.96229142 1.9914606e-38
5.7422624 -1.5490485 0.94235933 2.2311693e-38
5.8479137 -1.5773643 0.94203895 2.1758882e-38
5.9241362 -1.5956683 0.94870228 2.3234371e-38
6.1506619 -1.5724438 0.90953612 2.0297388e-39
5.2303405 -1.4284878 0.97955221 8.3083546e-40
5.3583951 -1.4658196 0.98318142 9.2267096e-40
5.4553642 -1.4295684 0.94957566 1.5213708e-38
5.5448751 -1.4534932 0.94047183 1.7519318e-38
5.6465034 -1.4720029 0.91505742 1.9640536e-38
5.7309017 -1.4692193 0.90396875 1.6046344e-38
5.8068743 -1.4844983 0.90898097 1.4939638e-38
4.9602675 -1.314582 0.96250212 1.1996138e-39
5.0554185 -1.3489372 0.97245842 1.1067007e-39
5.1501045 -1.3788497 0.97983885 9.2266956e-40
5.2314773 -1.3864523 0.98620176 1.0148638e-39
5.396409 -1.3756729 0.95449334 9.7734472e-39
5.4264908 -1.3875426 0.93488115 1.3094288e-38
5.5165143 -1.3983321 0.90730029 1.5585726e-38
1.6809989 -0.94686651 0.90925157 8.9422376e-39
1.7236111 -0.91924405 0.91761422 7.9259277e-39
1.776593 -0.8545931 0.93247533 4.8744714e-39
1.815474 -0.82701391 0.9061237 4.8795118e-39
1.7909845 -0.79361337 0.95348746 4.4149337e-39
1.8580378 -0.75810939 0.94832003 6.8210179e-39
1.9096792 -0.70912272 0.96207637 9.1280666e-39
1.9428519 -0.65174508 0.94947058 9.4046507e-39
1.9700733 -0.55875134 0.94893789 8.3905016e-39
2.0066113 -0.51219517 0.95296472 8.9436725e-39
2.0327427 -0.45068806 0.95038515 8.6667269e-39
2.0841482 -0.37128961 0.94601083 9.405008e-39
2.1058481 -0.32056332 0.95446604 9.7734304e-39
2.1304772 -0.25945869 0.94825602 9.6812362e-39
2.2228754 -0.21289875 0.95528668 7.3763524e-39
2.2614951 -0.18596001 0.95115513 6.2700091e-39
2.3256085 -0.1378966 0.95647138 4.6104877e-39
2.3708959 -0.07208854 0.94896024 4.9789115e-39
2.4257381 -0.024447693 0.95527488 4.7023246e-39
2.4718318 0.044199299 0.94909883 5.1625825e-39
2.5056739 0.093295343 0.9597913 6.2692874e-39
2.5503192 0.15013765 0.95040148 8.3905016e-39
2.6021202 0.19350439 0.90425569 9.8634694e-39
2.5961437 0.21062721 0.96498966 8.8514783e-39
2.6141312 0.25536585 0.94584173 9.403213e-39
2.6383183 0.33001515 0.95005894 9.40322e-39
2.9716871 0.44518074 0.9128316 1.2542597e-38
3.0479903 0.47474411 0.93549746 1.2727711e-38
3.1207113 0.49180284 0.97647339 1.2267093e-38
3.0830057 0.51713365 0.92542362 1.383406e-38
3.15556 0.55066592 0.940337 1.7982849e-38
3.2168963 0.57613188 0.97250098 1.7522594e-38
3.1925385 0.60661799 0.92063463 2.1304396e-38
3.2686484 0.65755153 0.95137274 2.0567199e-38
3.2672548 0.74977237 0.94923919 1.9368672e-38
3.1992557 0.87753326 0.90310913 1.7522254e-38
3.2261338 0.84769678 0.94963264 1.8076506e-38
3.0569761 0.98255903 0.94843841 6.5494995e-39
3.1676924 0.97766083 0.94548023 1.5308819e-38
3.2131257 0.93894136 0.95360386 1.687688e-38
2.9706831 1.0722368 0.95046073 1.3094313e-38
3.0310602 1.0263945 0.94900244 7.4714628e-39
2.8955319 1.130177 0.95411372 8.4834161e-39
2.9205389 1.1465436 0.9508909 9.958193e-39
2.9398434 1.2480181 0.9494859 7.7454895e-39
2.9803519 1.3369037 0.94430387 7.2848715e-39
3.0058153 1.3843839 0.96108013 7.1001187e-39
2.9994931 1.4054772 0.90441561 7.1919556e-39
3.022471 1.4458995 0.9511463 6.8235304e-39
2.7515931 1.5972639 0.99211222 8.1099308e-39
3.0776863 1.525179 0.95261467 6.0856066e-39
3.1226807 1.5753847 0.95122612 5.4398785e-39
2.5916719 1.6916971 0.96465206 7.3731042e-39
2.6634207 1.6619664 0.96292806 5.6213803e-39
2.7398074 1.6404753 0.94073468 6.5426107e-39
2.8475261 1.6567318 0.94503349 6.3582222e-39
2.9227233 1.6904159 0.96142364 4.4221154e-39
3.1720641 1.6344792 0.95292962 4.6097591e-39
3.2100725 1.6850057 0.95127201 3.9636736e-39
2.4610491 1.7988702 0.99607718 8.1117413e-39
2.5599382 1.7635144 0.96358234 6.5444394e-39
2.6556497 1.7461038 0.94056469 4.7008799e-39
2.7339849 1.7449538 0.90930694 3.8711164e-39
2.8229384 1.7556263 0.90957016 6.7299068e-39
2.9713104 1.7180825 0.94699091 3.8689444e-39
3.0658746 1.7405399 0.95068413 3.685279e-39
3.1415358 1.7204838 0.94783992 3.3172238e-39
3.214937 1.7129428 0.94521189 3.6867266e-39
2.1717122 1.8686068 0.98733002 6.7284411e-39
2.2513351 1.8555459 0.98656815 5.5295448e-39
2.3482566 1.8490849 0.9867757 4.8834607e-39
2.4522483 1.8477767 0.95276886 4.6994282e-39
2.5369003 1.8225913 0.94226432 6.911801e-39
2.6399071 1.8432134 0.92272282 9.6769692e-39
2.7285569 1.8464826 0.91315669 3.3186713e-39
2.8404315 1.8321512 0.90927398 5.1647531e-39
2.1801212 1.9385312 0.98836011 3.0391922e-39
2.2539477 1.9581904 0.95561022 1.9335733e-39
2.3533368 1.9470456 0.94593823 1.6573479e-39
2.4256296 1.9211818 0.93173933 1.5655124e-39
2.2535686 2.010988 0.9157539 1.1974516e-39
6.242805 -2.1107969 1.0027245 1.1070636e-39
6.3911338 -2.1132979 1.0142792 1.1074238e-39
6.4514208 -2.1259162 1.0098532 1.1074238e-39
7.2622204 -2.1219447 1.0128092 1.7794463e-38
7.3203077 -2.1280301 1.0075355 2.1851076e-38
6.097558 -2.0118418 1.0028646 1.1074238e-39
6.1613579 -2.0388982 1.0044332 9.230325e-40
6.2606268 -2.0462542 1.011608 1.1074238e-39
6.3688931 -2.0518861 1.0182059 1.1074238e-39
6.4332266 -2.0419464 1.0141531 1.1996194e-39
6.8654852 -2.0076942 1.0004058 2.8584149e-39
6.9480529 -2.0117767 1.0124372 1.7517877e-38
7.0499716 -2.0382316 1.0109951 1.751788e-38
7.1501813 -2.0714705 1.0132204 1.9546543e-38
7.2301993 -2.0865209 1.0118017 2.2773393e-38
5.7991562 -1.9050201 1.0039837 1.0152281e-39
5.8789964 -1.9168106 1.0059117 1.0152281e-39
6.0902929 -1.9391547 1.0016695 1.1996194e-39
6.1423125 -1.9303955 1.0165671 1.1074238e-39
6.2590885 -1.9477664 1.0376885 1.1074238e-39
6.3831906 -1.9435068 1.0355291 1.291815e-39
6.4046435 -1.9564725 1.0387416 1.291815e-39
6.6802058 -1.9246006 1.0023197 1.2169809e-38
6.7769833 -1.9451481 1.0046126 1.8071057e-38
6.8568397 -1.9705271 1.0073822 1.7978861e-38
6.9462342 -1.9812065 1.0088311 2.2957788e-38
7.0081267 -1.9988555 1.0110805 2.3142178e-38
5.3611465 -1.8109297 1.0265871 8.3047673e-40
5.4423823 -1.8155036 1.0253055 7.3864124e-40
5.522315 -1.8164108 1.0054193 6.4644561e-40
5.656065 -1.8212898 1.007776 9.230325e-40
5.754015 -1.8516545 1.0158061 9.230325e-40
5.8666239 -1.8559407 1.0276021 1.0152281e-39
5.9193659 -1.8422751 1.0210366 1.1074238e-39
6.061183 -1.8583492 1.0294751 1.1996194e-39
6.1659184 -1.8253875 1.0407937 1.3840106e-39
6.261529 -1.8354634 1.0376716 1.8446259e-39
6.3535347 -1.8624157 1.0352069 1.7524316e-39
5.3620739 -1.7451645 1.0525061 4.6205435e-40
5.4346991 -1.7587309 1.0160404 4.6205435e-40
5.5319266 -1.7561873 1.0051249 5.5424998e-40
5.6603956 -1.757314 1.0225431 6.4644561e-40
5.7619562 -1.7262621 1.0313689 8.3083687e-40
5.8476639 -1.7683679 1.0231051 1.1074238e-39
5.9316211 -1.7496132 1.0108687 1.3840106e-39
6.0556631 -1.7166935 1.0221815 2.1208512e-39
6.1318049 -1.7474834 1.0291103 1.9368215e-39
6.2318287 -1.7824525 1.0179495 2.1208512e-39
5.2765555 -1.6346231 1.0534717 4.6205435e-40
5.3472791 -1.657796 1.0328491 4.6205435e-40
5.4384699 -1.6645583 1.0142581 3.6985872e-40
5.5533333 -1.6546142 1.0443486 4.6205435e-40
5.6620717 -1.6359909 1.0568814 6.4644561e-40
5.7265239 -1.6686298 1.0362215 8.3083687e-40
5.8611126 -1.6322877 1.0240883 1.2903731e-39
5.9405231 -1.6508448 1.0284404 1.5665998e-39
6.0316482 -1.6758527 1.0490748 2.2119706e-39
5.1796651 -1.5333965 1.0387065 5.5424998e-40
5.2438703 -1.5679692 1.0364068 5.5424998e-40
5.3404732 -1.5635983 1.0395085 5.5424998e-40
5.4409232 -1.5361309 1.0429281 6.4644561e-40
5.5505123 -1.5668644 1.0460668 6.4644561e-40
5.6425624 -1.5491179 1.0216031 3.134643e-39
5.7400599 -1.54357 1.0318333 3.0428047e-39
5.8595471 -1.5979857 1.0397812 1.1974558e-39
5.0630617 -1.4331429 1.0153284 6.4644561e-40
5.1400113 -1.4493507 1.0251918 7.3864124e-40
5.2302403 -1.442647 1.0228219 7.3864124e-40
5.3576274 -1.4826343 1.0241096 7.3864124e-40
5.4576216 -1.4368966 1.0172853 2.859854e-39
5.5684552 -1.4683863 1.0208716 4.3346239e-39
5.6533985 -1.4833082 1.0385619 4.8881564e-39
5.7039151 -1.4952077 1.0450969 5.2580194e-39
5.1534457 -1.3880825 1.007432 1.0145093e-39
5.3077774 -1.3990225 1.003144 1.2918094e-39
1.8703889 -0.7428087 1.0104407 7.8362516e-39
1.9181546 -0.71190262 1.0242653 9.2195448e-39
1.9605803 -0.64901471 1.0361587 9.2199035e-39
1.9735723 -0.5568462 1.0386021 8.1135559e-39
2.0070059 -0.51252377 1.0499566 8.7589254e-39
2.0376506 -0.4503625 1.0497439 8.2975885e-39
2.0876851 -0.38400325 1.0464642 9.0355066e-39
2.1110146 -0.33397901 1.051908 9.3128124e-39
2.1480057 -0.25681016 1.0527126 8.1135545e-39
2.2135227 -0.21073247 1.0414864 4.3321002e-39
2.1890213 -0.19068748 1.0963417 6.9150114e-39
2.253047 -0.16596438 1.0562729 4.0551546e-39
2.3238916 -0.12255532 1.0398411 4.0565965e-39
2.3661814 -0.071466647 1.0573225 4.1487921e-39
2.4317186 -0.023813425 1.047134 4.8867173e-39
2.4779899 0.032780133 1.0520804 4.7016072e-39
2.5092132 0.083961017 1.0551383 4.6094101e-39
2.5406821 0.15067396 1.0485897 5.8075904e-39
2.583338 0.23306265 1.0539385 6.7291852e-39
2.6116374 0.27150258 1.0400017 7.3749147e-39
2.6402373 0.33820805 1.0528666 8.2046866e-39
2.7355106 0.38420507 1.05985 1.5121901e-38
2.6897697 0.41039467 1.0945944 7.467874e-39
2.7096944 0.42279768 1.0962589 8.5753048e-39
2.8751526 0.4077208 1.0908886 1.5214457e-38
3.0814822 0.4651376 1.0106416 1.1712474e-38
3.148807 0.48007292 1.0391781 1.226601e-38
3.2179592 0.48342335 1.0886759 1.3741496e-38
3.1852708 0.50792772 1.0239582 1.2174177e-38
3.2511837 0.53592974 1.0500515 1.2266374e-38
3.3411577 0.5772301 1.0681069 1.2450768e-38
3.2858579 0.65612686 1.0080216 1.844599e-38
3.3333778 0.6583842 1.0378289 1.6969787e-38
3.4269416 0.64762211 1.0875561 1.3004306e-38
3.2792521 0.75901777 1.02979 1.9644182e-38
3.331594 0.74153858 1.0680012 1.9090291e-38
3.4230263 0.71913034 1.0924722 1.3834786e-38
3.2607653 0.85172868 1.0498143 1.8353093e-38
3.3101816 0.80607539 1.095991 1.8813353e-38
3.0681362 0.9916172 1.0482255 1.1067475e-38
3.1471252 0.9784655 1.0570933 1.1066752e-38
3.2237475 0.93985778 1.0500183 1.715311e-38
2.8948791 1.0935184 1.053331 8.6678157e-39
2.9521766 1.0572498 1.0496655 1.1895044e-38
3.0291507 1.0110554 1.0458957 7.5640438e-39
2.8921878 1.1232105 1.0382826 8.1142776e-39
2.9160428 1.159849 1.0515102 8.3908631e-39
2.9380631 1.2473885 1.0502073 7.3763496e-39
2.9832356 1.3239366 1.0445588 7.3763496e-39
3.0140121 1.3739964 1.0548967 6.9153687e-39
3.035006 1.4457605 1.0503863 6.5465862e-39
2.7442775 1.5944118 1.055478 7.7411511e-39
3.0832856 1.5247846 1.0472076 5.6242697e-39
3.1188064 1.5730972 1.0554327 4.7941517e-39
2.6950855 1.6568981 1.0067134 4.6075871e-39
2.7222543 1.6396542 1.0501652 5.4366247e-39
2.8482518 1.6359565 1.054948 5.159679e-39
2.9475429 1.6835308 1.0637857 3.8693018e-39
3.0657296 1.6935017 1.0890019 3.2246652e-39
3.1683824 1.661805 1.0580024 3.8714766e-39
3.2029784 1.691723 1.010532 3.6870867e-39
2.4682927 1.7956945 1.031449 6.5451414e-39
2.5751085 1.7914766 1.0429246 2.9480853e-39
2.6507373 1.7827772 1.0555755 2.3027159e-39
2.7216356 1.7452004 1.0646083 2.3949074e-39
2.9847453 1.7075899 1.0354682 3.9614974e-39
3.0553968 1.7160252 1.0445302 3.685279e-39
3.1455193 1.7072173 1.031275 3.4094194e-39
3.2029595 1.7045915 1.0101222 3.5948911e-39
2.1819012 1.8814402 1.0174541 5.6235453e-39
2.2519498 1.8739365 1.0463064 3.4112159e-39
2.3498633 1.8585137 1.0481555 4.055865e-39
2.4562418 1.8346732 1.058689 7.2827065e-39
2.538826 1.8077981 1.0553213 2.395629e-39
2.1763976 1.9273878 1.0233109 5.8994077e-39
2.2235241 1.942773 1.0751684 3.7803585e-39
2.2371678 2.0090539 1.0841177 3.5952442e-39
5.5971637 -1.6206456 1.1062855 6.4644561e-40
5.6679788 -1.6378912 1.1055372 5.5424998e-40
2.049006 -0.43485376 1.1098014 8.021003e-39
2.0927577 -0.38985184 1.1200852 8.7589225e-39
2.1157556 -0.3380523 1.128502 8.9433124e-39
2.155427 -0.24681877 1.1381671 9.0355108e-39
2.188169 -0.17901883 1.1511276 9.0355094e-39
2.2341394 -0.13263452 1.1436774 8.2053886e-39
2.3064466 -0.10482296 1.1129645 4.1466285e-39
2.2741039 -0.069399841 1.165835 8.9429551e-39
2.3448617 -0.045305062 1.1419377 6.6369881e-39
2.4118462 -0.011952764 1.1315132 4.4239357e-39
2.3741815 0.014525962 1.1837802 9.034429e-39
2.456779 0.040302541 1.1537491 5.8068687e-39
2.5123112 0.086138532 1.1554816 5.0693037e-39
2.5492921 0.15054342 1.1477869 5.2518957e-39
2.5765185 0.2458514 1.1594025 7.7379323e-39
2.6044519 0.284563 1.1324394 5.9887433e-39
2.573761 0.34254602 1.1810025 1.3346729e-38
2.6294143 0.35445973 1.1392548 7.6468269e-39
2.7661452 0.39544427 1.1085848 1.5397772e-38
2.8111234 0.39864099 1.1132497 1.5306296e-38
2.5970278 0.40661302 1.1943272 1.6192546e-38
2.6557565 0.4438372 1.1627495 1.2701731e-38
2.7350562 0.46562108 1.126385 9.2184966e-39
2.8464713 0.42970568 1.1316458 1.512155e-38
2.9518731 0.43800601 1.159633 1.5306302e-38
3.0472531 0.455273 1.1801496 1.5214466e-38
3.1617217 0.47041306 1.1766496 1.4662372e-38
3.2504578 0.48446098 1.1565715 1.4570176e-38
3.3095915 0.49055514 1.1485851 1.4477978e-38
2.6584315 0.55385691 1.1814532 1.6009593e-38
2.7449696 0.5457384 1.1571143 8.3851192e-39
2.8456261 0.55764067 1.1525247 9.9557043e-39
2.9341652 0.57005149 1.1625721 9.3110706e-39
3.0249214 0.56427705 1.1957316 1.4105962e-38
3.2708018 0.51632762 1.1633281 1.3832618e-38
3.3488178 0.54152638 1.1541367 1.337164e-38
3.4187977 0.58240825 1.1660482 1.2634075e-38
2.6667116 0.63859171 1.1849738 1.0407633e-38
2.7496037 0.65177405 1.1701729 9.7655201e-39
2.8393562 0.65131932 1.1673098 7.8333887e-39
2.943048 0.6356014 1.1808197 1.0232291e-38
3.0251839 0.6587407 1.1939546 9.7724033e-39
3.4622259 0.62580019 1.1429818 1.2358571e-38
3.5419147 0.66997159 1.1610489 1.2635161e-38
3.6054032 0.69679457 1.1946064 1.2542965e-38
2.6960013 0.70124811 1.1979584 8.4787315e-39
2.7688272 0.72708946 1.1849397 9.0319081e-39
2.836375 0.75682336 1.1720517 7.7429826e-39
2.9549074 0.75217289 1.1866244 9.6791062e-39
3.0296159 0.75864768 1.1875355 1.0048985e-38
3.1116803 0.78243762 1.1986107 7.0047393e-39
3.3756952 0.78382701 1.1065724 1.7706645e-38
3.4592905 0.75519484 1.1227776 1.3650036e-38
3.5604665 0.74804586 1.1588038 1.3188697e-38
3.6149664 0.74108171 1.1878645 1.2819915e-38
2.8665521 0.83754247 1.184081 8.2050355e-39
2.941483 0.8556264 1.1810308 7.0979789e-39
3.0471134 0.84868455 1.1839471 9.9564246e-39
3.1355944 0.86498016 1.1890926 1.2905616e-38
3.2706571 0.86609191 1.151001 2.1025297e-38
3.3337688 0.82549578 1.1530154 1.9551254e-38
3.445354 0.82638204 1.1646634 1.3281608e-38
3.543613 0.8216511 1.1856408 1.3097219e-38
2.9571319 0.95360929 1.1850467 7.0064951e-39
3.0588779 0.96657902 1.163617 9.4036081e-39
3.1430628 0.95146948 1.1514295 1.4292147e-38
3.2228038 0.92453361 1.1370254 1.9088125e-38
2.943145 1.0489833 1.1505828 7.2838009e-39
3.0197532 1.0106128 1.1259574 7.5600585e-39
2.9283583 1.1489638 1.1496303 7.5607395e-39
2.9524751 1.2485474 1.1502523 7.0075657e-39
2.9879074 1.3271276 1.1549273 6.9153715e-39
3.0064087 1.3732256 1.1485615 6.4543933e-39
3.0357571 1.4468892 1.1490356 6.084892e-39
2.7646658 1.5952212 1.1472441 7.2805345e-39
2.8042116 1.5991833 1.1954714 6.8206409e-39
3.085741 1.5217606 1.1526124 5.2551313e-39
3.1171231 1.5708318 1.1478273 4.6097633e-39
2.7489336 1.6472481 1.1509875 4.7912595e-39
2.8498361 1.6238723 1.1531181 5.0682065e-39
2.9589293 1.6706264 1.1539193 4.0544175e-39
3.0495136 1.6765527 1.1503274 3.6860035e-39
3.1461198 1.6518714 1.1471936 3.7796425e-39
2.4819875 1.7859397 1.1739522 5.8079393e-39
2.5542729 1.78289 1.1651678 1.6577081e-39
2.6490965 1.7809995 1.153126 1.749545e-39
2.7408271 1.7507088 1.1530948 2.2101588e-39
2.2859318 1.8957274 1.105145 4.1491326e-39
2.3596652 1.8927779 1.11324 4.0569454e-39
2.4793673 1.8513283 1.1445621 8.1146293e-39
2.5403183 1.8054928 1.120489 2.1194023e-39
2.269624 1.9457989 1.1255809 5.1636447e-39
2.3464003 1.9386029 1.1592 5.8086554e-39
2.4578841 1.9197483 1.1671772 5.8093869e-39
2.2703085 2.0261893 1.1365451 4.3338826e-39
2.3195915 2.0388577 1.181488 5.8097386e-39
7.8793511 -1.2015594 1.261814 1.2262718e-38
7.9702873 -1.2039284 1.2763767 1.2262718e-38
8.0332422 -1.2056983 1.2864689 1.2170522e-38
8.1478424 -1.2189938 1.2871573 1.2170524e-38
9.1927252 -1.229436 1.2599483 1.9640162e-38
9.2575512 -1.2171009 1.2745787 1.8995513e-38
7.5660992 -1.1537902 1.2935029 1.2537499e-38
7.6533399 -1.167094 1.280787 1.2354191e-38
7.7662163 -1.1768283 1.2885159 1.2262355e-38
7.8469152 -1.1909385 1.2792572 1.2078327e-38
7.9347439 -1.1985594 1.2821319 1.2078327e-38
9.1572065 -1.1674412 1.228673 2.0194418e-38
9.2468023 -1.1782941 1.2573829 1.9641964e-38
9.3502941 -1.1695675 1.2680635 2.0195139e-38
9.4449015 -1.1677815 1.2809182 2.0471006e-38
9.5501604 -1.1587279 1.2758722 1.9548329e-38
9.6249752 -1.1553181 1.2914209 1.908699e-38
2.2273147 -0.11731156 1.2071761 8.6660067e-39
2.268589 -0.055895023 1.2193177 8.8493217e-39
2.3168411 -0.011828393 1.2250319 8.9411572e-39
2.3670971 0.036044363 1.2519509 8.9407929e-39
2.4293146 0.077831045 1.2405051 9.2166595e-39
2.519109 0.096019387 1.200665 9.2188189e-39
2.3982294 0.10136047 1.2991822 9.3070517e-39
2.4688249 0.12118988 1.2594746 9.4914457e-39
2.5346 0.16369033 1.2391282 9.8591464e-39
2.3973281 0.2984589 1.293504 1.4803484e-38
2.4523799 0.27504268 1.2596935 1.2416852e-38
2.5389616 0.23795891 1.2426351 1.1417826e-38
2.3879032 0.3236599 1.2784517 1.4530853e-38
2.4435508 0.34832782 1.2434834 1.6460851e-38
2.5363064 0.36183468 1.212119 1.4073851e-38
2.4673755 0.41828096 1.2790507 2.0226465e-38
2.5625565 0.4469718 1.2469994 1.370039e-38
2.6205316 0.46992698 1.2122701 1.6647763e-38
3.0784354 0.47966552 1.206953 1.5122636e-38
3.1449008 0.48962414 1.2093072 1.50308e-38
3.2070649 0.4964292 1.2029607 1.4938604e-38
2.5926747 0.57297128 1.2639935 1.3804101e-38
2.6102204 0.54053658 1.236619 1.1682529e-38
3.071439 0.56016719 1.21175 1.484425e-38
3.17011 0.53837311 1.2367299 1.5030441e-38
3.2449119 0.54730177 1.2321659 1.4754573e-38
3.3425026 0.57155156 1.2308037 1.4293595e-38
3.44837 0.58149481 1.2253226 1.4108845e-38
3.5067308 0.59846449 1.2369523 1.4108845e-38
2.5881646 0.61795688 1.2666507 1.3805911e-38
2.6321995 0.65637499 1.2374752 8.9353853e-39
2.9837239 0.6813674 1.2065625 1.0692901e-38
3.0378222 0.68184167 1.2066079 1.0048624e-38
3.1489804 0.67589211 1.2293264 1.1341175e-38
3.2466969 0.64139181 1.2651824 1.4477266e-38
3.3410325 0.62463999 1.2788091 1.4662377e-38
3.4584203 0.62799037 1.2704704 1.3925172e-38
3.5461712 0.64336878 1.2466019 1.2726632e-38
3.6205072 0.68292224 1.2619754 1.198943e-38
2.6818244 0.71387714 1.2535847 8.1092287e-39
2.7470493 0.76215398 1.2454987 7.9266395e-39
2.8042638 0.79312754 1.2059418 8.2039481e-39
2.989723 0.70801979 1.2040013 1.0417034e-38
3.0447981 0.71410197 1.205842 1.0509961e-38
3.1447847 0.74297643 1.2173693 9.7731291e-39
3.2496312 0.75974745 1.251562 1.355423e-38
3.3293025 0.75254542 1.2818158 1.2817387e-38
3.6461685 0.75423455 1.2506003 1.2358575e-38
2.7850156 0.81391841 1.2764813 7.7436874e-39
2.8405421 0.85531765 1.2442801 7.7444091e-39
3.1740229 0.8373431 1.2070124 1.7424276e-38
3.2562473 0.85129029 1.2174793 2.249718e-38
3.3461845 0.82668656 1.2371629 2.0655434e-38
3.4552205 0.8368448 1.2529985 1.309613e-38
3.5716078 0.84185404 1.2596025 1.2451127e-38
3.6186395 0.82174271 1.2560976 1.2542967e-38
2.8860645 0.91738915 1.2626399 7.560378e-39
2.9206114 0.9630658 1.24447 7.560378e-39
3.0855744 0.92398316 1.2010907 1.0140089e-38
3.2227764 0.90335029 1.2018795 2.3049631e-38
2.9373231 1.047985 1.2494092 7.1915968e-39
2.9651396 1.1520132 1.2503198 7.1915968e-39
2.9821832 1.2498692 1.2503569 6.7309788e-39
3.0005817 1.2956018 1.2954206 6.6387846e-39
2.9965153 1.3513085 1.2474344 6.3621991e-39
3.0008211 1.3467803 1.2679265 6.4543933e-39
3.0304344 1.4470223 1.250347 5.7168297e-39
2.776134 1.5933985 1.2531908 6.5429764e-39
2.8134711 1.5960267 1.2623758 6.2671126e-39
3.0834973 1.5291612 1.2534964 5.1636559e-39
3.1107872 1.5781304 1.2519768 4.8863516e-39
2.4723308 1.6766356 1.2844151 5.3440731e-39
2.5527146 1.6597681 1.2796062 4.4221196e-39
2.6529126 1.6548055 1.282429 4.0526182e-39
2.7410607 1.6477771 1.249312 3.4076103e-39
2.8670676 1.6137981 1.2566568 4.792707e-39
2.9501758 1.633485 1.2502224 4.0558678e-39
3.0529623 1.6356099 1.251209 3.9640351e-39
3.1227272 1.6239393 1.2309251 4.517569e-39
2.4605551 1.7490935 1.2589875 5.0682093e-39
2.5441289 1.7335622 1.2335054 2.3019887e-39
2.651612 1.7274015 1.2362787 2.0250444e-39
2.7252777 1.7266965 1.2219806 1.9328516e-39
2.4814916 1.8496925 1.2493635 6.9139267e-39
2.5012517 1.895512 1.269163 5.3466024e-39
2.3798742 1.9884119 1.2079096 4.7945147e-39
2.4710031 1.9597161 1.2525712 3.5030584e-39
2.5046809 1.934411 1.2518364 4.7016002e-39
2.3644931 2.0626149 1.2383715 4.8870774e-39
2.4250364 2.0346425 1.2731107 3.3186755e-39
2.3632653 2.1171947 1.2636664 5.4391596e-39
8.9808159 -1.3047457 1.3475107 1.2354186e-38
9.0550976 -1.3089863 1.3521435 1.2353829e-38
9.1620464 -1.3099245 1.3746872 1.2262355e-38
9.2486486 -1.3214211 1.3609972 1.2354549e-38
9.3584995 -1.3258615 1.3703958 1.2170877e-38
9.4529219 -1.32559 1.3501521 1.2079039e-38
9.571887 -1.3353812 1.3809834 1.2079403e-38
9.6436939 -1.3175473 1.3774081 1.2909882e-38
9.7166252 -1.3135049 1.3878248 1.4108426e-38
8.1612844 -1.2052908 1.318751 1.2078688e-38
8.2600803 -1.2102295 1.3296126 1.1248929e-38
8.3439913 -1.2194512 1.3241737 1.1802462e-38
8.4516592 -1.2278669 1.3339403 1.1894657e-38
8.5320978 -1.2302887 1.3448355 1.1895016e-38
8.6567411 -1.2526498 1.3488538 1.1894656e-38
8.7704945 -1.2657652 1.3538963 1.1986488e-38
8.844058 -1.2625912 1.377962 1.1894654e-38
8.9328995 -1.284897 1.3725172 1.1894654e-38
9.0242777 -1.2980409 1.3670508 1.2078681e-38
9.3727236 -1.2737569 1.3116621 1.5398439e-38
9.4412718 -1.2409378 1.3239921 1.7982078e-38
9.5609283 -1.2510592 1.3517933 1.8443058e-38
9.6969385 -1.2129332 1.385013 1.7982084e-38
9.7366476 -1.2600863 1.3906847 1.8811483e-38
7.5349059 -1.1490333 1.3044869 1.2537499e-38
7.6346202 -1.1532251 1.3162129 1.2629694e-38
7.7476802 -1.1504943 1.3533916 1.2629334e-38
7.8535037 -1.1474178 1.3653023 1.2537499e-38
7.9458437 -1.1455351 1.3604777 1.2261632e-38
8.0548725 -1.1479446 1.3654341 1.2261633e-38
8.1351967 -1.1572351 1.3696756 1.1156009e-38
8.2546663 -1.1568916 1.3854218 9.2199021e-39
8.3517933 -1.17044 1.3841411 8.5745369e-39
8.4470663 -1.1448087 1.3812716 9.6823236e-39
8.5505657 -1.1499207 1.375443 1.1250008e-38
8.6370955 -1.1488363 1.3831606 1.1342201e-38
9.4453964 -1.1882966 1.315033 1.9827433e-38
9.553772 -1.1839874 1.3314868 2.0103661e-38
9.6630096 -1.1743569 1.351234 1.973416e-38
9.7588243 -1.1535082 1.3613693 1.8903679e-38
9.8392982 -1.134198 1.3726921 1.862637e-38
7.952785 -1.0490164 1.3908976 1.2446022e-38
8.0452089 -1.0547075 1.3850816 1.2169794e-38
8.1459866 -1.045983 1.3855913 1.2262352e-38
8.2449503 -1.0511657 1.3937048 1.1432593e-38
8.347456 -1.0622177 1.3929588 8.3905002e-39
8.4315405 -1.077468 1.3851949 8.2997479e-39
8.5424433 -1.0808121 1.3844552 1.0605357e-38
8.9662123 -1.005114 1.3970604 2.0377727e-38
7.774405 -0.93882281 1.3908137 1.2813727e-38
7.9546995 -0.99214089 1.3914845 1.2630772e-38
8.0362148 -0.99360943 1.3970491 1.2538934e-38
8.276844 -0.90395427 1.3971134 2.0746503e-38
8.3535767 -0.91957903 1.3883488 2.0008584e-38
8.4454327 -0.93457061 1.3808764 1.9732719e-38
8.5365591 -0.93030483 1.3793489 2.0930542e-38
8.6335545 -0.93669742 1.3825781 2.1022738e-38
8.7375402 -0.94797331 1.3887249 2.0930541e-38
8.8264551 -0.9766947 1.3880179 2.1114932e-38
8.9559784 -0.98457152 1.3954659 2.0192974e-38
7.868309 -0.81392938 1.3678606 2.1113124e-38
7.9446993 -0.82802117 1.3595538 2.1113126e-38
8.0404577 -0.84831607 1.3688077 2.1113843e-38
8.1446037 -0.8626591 1.3714206 2.1022009e-38
8.2646284 -0.87677211 1.3731585 2.0837981e-38
8.3676224 -0.8957442 1.3822405 2.092982e-38
8.4103708 -0.88213736 1.3711191 2.0469204e-38
8.5605106 -0.89788502 1.3832462 2.0561758e-38
2.3861794 0.095688462 1.3012617 9.0311878e-39
2.3957098 0.10471295 1.3039883 9.3066929e-39
2.4668806 0.15879634 1.3219075 1.0315803e-38
2.5049362 0.18082125 1.3070598 1.0591308e-38
2.396337 0.29625934 1.3040334 1.4527976e-38
2.4644964 0.23895051 1.321283 1.287999e-38
2.5039496 0.20830058 1.3048327 1.1049401e-38
2.3919764 0.33852893 1.3033864 1.5261222e-38
2.4186487 0.37853265 1.3104429 1.9575677e-38
2.4724958 0.43462032 1.3248451 2.2321767e-38
2.5328693 0.48046711 1.3297759 2.2146733e-38
2.6003029 0.49629104 1.3129925 2.1363752e-38
2.563206 0.55333668 1.3457711 1.9024311e-38
2.6079888 0.53044134 1.3129702 2.1069194e-38
2.5809979 0.62169141 1.3459436 1.0765248e-38
2.6300137 0.67306787 1.3500677 8.4744099e-39
3.3758705 0.66070974 1.3072844 1.4570182e-38
3.4575026 0.67624176 1.3190297 1.4385792e-38
3.5451727 0.68048072 1.3115042 1.3832978e-38
3.648191 0.68559891 1.3168528 1.2450044e-38
2.6824367 0.71588445 1.3506606 8.1085099e-39
2.7281258 0.76678002 1.3508291 7.7418896e-39
3.3775852 0.72386158 1.3034648 1.4200321e-38
3.4616971 0.73794907 1.3248795 1.3739703e-38
3.5450714 0.75388312 1.3387227 1.3186891e-38
3.6608288 0.75800908 1.3326968 1.1896873e-38
3.7040856 0.72655088 1.337741 1.152809e-38
2.7750037 0.82753938 1.3495361 7.4671033e-39
2.8228278 0.87753791 1.3467292 7.3756266e-39
3.4704676 0.82464916 1.3120366 1.1896152e-38
3.5636826 0.82971871 1.3271464 1.1988708e-38
3.6217108 0.81301439 1.3301229 1.2080546e-38
2.8726184 0.94502348 1.3573598 7.0993998e-39
2.9107869 0.98149186 1.3257505 7.1915954e-39
2.8893559 1.0247066 1.3814286 6.9146512e-39
2.9236698 1.0522511 1.3406314 7.0994026e-39
2.9744875 1.1531717 1.3535795 6.91501e-39
2.9915202 1.2459288 1.3606243 6.5462302e-39
3.0012479 1.2649882 1.3251319 6.5465876e-39
2.9891403 1.3494383 1.3506806 5.993418e-39
3.0022774 1.3097824 1.3163824 6.7309802e-39
2.9969876 1.4076917 1.3619632 5.6246355e-39
3.0239048 1.4564828 1.3488632 5.4402442e-39
2.7870662 1.5967793 1.3128713 6.7273705e-39
2.8202019 1.5970349 1.3171439 6.2674741e-39
2.9543424 1.5892365 1.3619416 4.4257336e-39
3.0544589 1.5562818 1.3484347 4.5179292e-39
3.1001866 1.5756532 1.3015238 4.7941559e-39
2.4678171 1.6759273 1.324108 4.8849026e-39
2.5587833 1.6493061 1.3459476 3.4101411e-39
2.6415944 1.6271333 1.3480664 4.0551504e-39
2.7462313 1.6196697 1.3535483 4.5161271e-39
2.8604503 1.6081624 1.357174 4.8856285e-39
2.9349902 1.6050069 1.3297261 4.3331778e-39
3.0355847 1.6089375 1.3118546 4.0565909e-39
2.4326596 1.747824 1.3135138 6.1738296e-39
2.4709842 1.855121 1.3244404 4.1458956e-39
2.4839911 1.9549488 1.3282087 3.9629547e-39
2.3962388 2.0936377 1.3044424 3.1342913e-39
2.4467943 2.0426934 1.3201544 3.7796579e-39
2.3914104 2.1126196 1.3030351 3.3186741e-39
9.2892666 -1.3093539 1.4272912 1.2078688e-38
9.3412056 -1.3099124 1.4285858 1.2078687e-38
9.4476318 -1.3146403 1.4379666 1.2170522e-38
9.5465488 -1.324954 1.4323936 1.198685e-38
9.6633883 -1.323745 1.4603603 1.2079046e-38
9.739398 -1.3329812 1.4473001 1.2079404e-38
9.8461475 -1.3341687 1.452108 1.2356351e-38
9.9457464 -1.3253319 1.4612116 1.4108427e-38
10.017622 -1.3180796 1.4886243 1.4662323e-38
8.8694553 -1.2117705 1.4075755 1.1802463e-38
8.9997921 -1.2685515 1.4152763 1.1895015e-38
9.0443525 -1.2748019 1.4157749 1.1895015e-38
9.1559362 -1.2527567 1.4341787 1.1710625e-38
9.2479029 -1.2568698 1.4476142 1.1249645e-38
