# .PCD v0.7 - Point Cloud Data file format
VERSION 0.7
FIELDS x y z rgb
SIZE 4 4 4 4
TYPE F F F F
COUNT 1 1 1 1
WIDTH 1070
HEIGHT 1
VIEWPOINT 0 0 0 1 0 0 0
POINTS 1070
DATA ascii
2.3597291 0.17402934 1.1487858 1.1155652e-38
2.437814 0.13627501 1.1543185 1.1893212e-38
2.5408676 0.11946418 1.1669269 9.7727143e-39
2.6187279 0.10783668 1.1914871 9.772357e-39
3.4697523 0.14732075 1.1043717 7.5614696e-39
3.5527315 0.14385591 1.1221455 7.4692725e-39
3.6661749 0.1670422 1.1299464 8.391226e-39
3.7172902 0.18519793 1.1542152 8.4834231e-39
2.336853 0.24911031 1.1500602 1.1893219e-38
3.4827888 0.24998792 1.1003627 7.5614654e-39
3.5723627 0.2587994 1.1071942 7.5614654e-39
3.6612768 0.23333833 1.1190224 7.4689124e-39
3.7115865 0.22250533 1.1212424 7.2848813e-39
2.3714099 0.31769785 1.1523956 1.4198468e-38
2.4602461 0.36855155 1.151646 1.1432593e-38
2.5034974 0.39835742 1.1810445 1.1524787e-38
3.4871166 0.30584991 1.1017525 8.5759704e-39
3.5470872 0.3115454 1.1038926 8.3912204e-39
3.6047585 0.3048991 1.1042516 7.1011991e-39
2.4968393 0.40553156 1.1068898 1.1156003e-38
2.532882 0.42664599 1.1504546 1.2077961e-38
2.6386735 0.47980088 1.1534299 1.0602469e-38
2.7049975 0.49481171 1.1921978 1.0234047e-38
2.6764257 0.52380311 1.1313008 9.8649044e-39
2.7345681 0.56276166 1.1596867 9.8649044e-39
2.7788627 0.61215574 1.1372566 9.6805131e-39
2.8460457 0.651465 1.1534992 9.6805103e-39
2.9166098 0.69201636 1.1533656 9.496119e-39
2.9689672 0.71544087 1.1475441 9.3120879e-39
3.0539773 0.75585127 1.1498148 9.1280568e-39
3.1219995 0.78904301 1.1634723 9.1280582e-39
3.0917413 0.83865839 1.1065892 6.5465932e-39
3.1579943 0.84069949 1.1538464 8.6667227e-39
3.2187593 0.87327868 1.1837941 8.6667213e-39
3.141593 0.96321374 1.156072 8.2975815e-39
3.2174277 0.92018396 1.1857167 8.4823329e-39
3.078196 1.0458959 1.1639385 8.2050271e-39
3.1107073 1.0467309 1.122628 7.6522149e-39
2.1532748 1.1601682 1.1381701 1.1155291e-38
2.247921 1.146349 1.1464914 1.0602476e-38
2.3453605 1.1548231 1.1491176 1.0879063e-38
2.448209 1.1686246 1.1522267 1.0511e-38
2.5469625 1.1847194 1.1553141 1.0326966e-38
2.6281674 1.1959779 1.1345003 1.0234771e-38
3.0915728 1.1125842 1.1773738 7.836246e-39
3.1233432 1.1558461 1.1445183 7.2834337e-39
2.1499398 1.2542832 1.1360744 1.4383218e-38
2.6607964 1.2079213 1.1622356 1.005038e-38
2.7472742 1.2211871 1.1521834 1.0050382e-38
2.8488374 1.2391034 1.1537684 9.4968477e-39
2.956851 1.2602655 1.1518688 9.035871e-39
3.0639486 1.2513199 1.1526291 7.6525778e-39
3.109617 1.2132318 1.1601508 7.0068483e-39
2.1560929 1.3477855 1.1389976 1.8993359e-38
2.1628485 1.4523535 1.138274 1.9546893e-38
2.1430206 1.5395702 1.1327823 1.9639091e-38
2.0751569 1.6674564 1.1165388 1.6596648e-38
2.1808724 1.6267886 1.1314007 1.5397021e-38
2.223444 1.6764228 1.1453763 1.5396663e-38
2.1694467 1.7319503 1.1363717 1.613531e-38
2.2428193 1.7421165 1.1556398 1.5858363e-38
2.5639768 2.2759521 1.1023042 1.8439129e-38
3.3308959 -2.8245852 1.2909042 1.6044542e-38
3.2602227 -2.7374208 1.2741665 1.5767955e-38
3.3055179 -2.790689 1.2899659 1.5951988e-38
3.1804354 -2.6242499 1.244315 1.549101e-38
3.2175322 -2.6602962 1.2755505 1.5306619e-38
3.1678424 -2.5525641 1.2397405 1.4938195e-38
3.2379448 -2.5377424 1.2758951 1.4199912e-38
3.3207803 -2.5279095 1.2893492 1.3923325e-38
3.1681726 -2.4643905 1.2143857 1.4476859e-38
3.2518101 -2.4594142 1.2442409 1.4107718e-38
3.3448954 -2.4602687 1.2807245 1.3554546e-38
3.402564 -2.4431036 1.2959319 1.3370153e-38
3.1841431 -2.3448098 1.2046983 1.1895745e-38
3.2636435 -2.3307195 1.2237548 1.0697203e-38
3.3436825 -2.3364463 1.2703336 1.1618439e-38
3.4013135 -2.3023572 1.2954557 1.2816619e-38
4.4990692 -2.3022532 1.2007966 1.3185765e-38
4.5631399 -2.3077197 1.2112871 1.3093569e-38
4.6541338 -2.3133459 1.2230496 1.2908818e-38
4.7511086 -2.319648 1.232994 1.2816979e-38
4.8497572 -2.3251657 1.2446799 1.2724784e-38
4.9487319 -2.3338184 1.2483789 1.2632588e-38
5.0514097 -2.341624 1.2526599 1.2540392e-38
5.1477337 -2.3518467 1.2492175 1.2540392e-38
5.2511024 -2.3626695 1.2522285 1.2540392e-38
5.3504872 -2.3664262 1.2528846 1.2448197e-38
5.452661 -2.3579559 1.2510473 1.2356001e-38
5.5495663 -2.331605 1.2435943 1.217161e-38
5.6239967 -2.308181 1.2199274 1.1802827e-38
3.2646253 -2.2527118 1.2167255 1.0972713e-38
3.3614755 -2.2547584 1.2681279 1.2540397e-38
3.4201505 -2.2298427 1.2931372 1.3001015e-38
3.978986 -2.2069776 1.2130039 1.3369437e-38
4.0601778 -2.2253265 1.2260979 1.3277241e-38
4.1543202 -2.2320101 1.2411714 1.309321e-38
4.248878 -2.2352638 1.2509387 1.3000654e-38
4.3500109 -2.2435102 1.2544529 1.2816982e-38
4.4481468 -2.2584152 1.2521142 1.2816622e-38
4.5464029 -2.2689672 1.2614746 1.2632591e-38
4.6444807 -2.2786448 1.2718993 1.2540035e-38
4.7447491 -2.28759 1.2836282 1.2448199e-38
4.844872 -2.2945228 1.2926463 1.2356001e-38
4.9124489 -2.2976284 1.2969532 1.2355641e-38
5.5850863 -2.2924452 1.2851727 1.1618436e-38
5.6725192 -2.2597857 1.251326 1.0512088e-38
5.7024832 -2.2338662 1.2485878 1.0789034e-38
3.2687304 -2.1510901 1.2131114 1.1525887e-38
3.3519306 -2.1567748 1.2434649 1.1894668e-38
3.4355319 -2.1488674 1.2770432 1.2447482e-38
3.7773728 -2.1127629 1.2142859 1.2908819e-38
3.8544357 -2.1285877 1.2354866 1.2816622e-38
3.9497888 -2.1551328 1.2537553 1.2724426e-38
4.0430717 -2.1749003 1.268149 1.2632231e-38
4.1392999 -2.1909916 1.2891163 1.2539676e-38
4.2249231 -2.1984675 1.2982556 1.2447841e-38
5.7249417 -2.1531477 1.2513045 1.171063e-38
3.2941236 -2.0812898 1.202355 9.9592804e-39
3.3697534 -2.0643585 1.2246667 1.2631872e-38
3.4544227 -2.0726182 1.249722 1.2816263e-38
3.5492611 -2.0647016 1.2492781 1.2724068e-38
3.6485784 -2.0625653 1.2516941 1.2631872e-38
3.7435582 -2.0776303 1.2578104 1.2631872e-38
3.8285351 -2.0911605 1.2793136 1.2447481e-38
5.7530069 -2.0511613 1.2512274 1.1342206e-38
5.8155899 -2.0077291 1.2148857 1.1157815e-38
5.7813258 -1.966043 1.2865394 1.0788674e-38
5.8438544 -1.9519883 1.2468532 1.088087e-38
5.9405236 -1.9246591 1.217154 1.0789033e-38
6.0373325 -1.9095769 1.2051334 1.0788674e-38
5.6998744 -1.8066221 1.2992693 9.497575e-39
5.759388 -1.8403081 1.2826465 1.0603923e-38
5.8481112 -1.856678 1.2581459 1.0051109e-38
5.9523993 -1.8541069 1.2343079 9.7748808e-39
6.0505257 -1.8433292 1.2164866 1.0143305e-38
6.1205297 -1.8163254 1.2042038 9.7748808e-39
5.3756413 -1.7057788 1.2893107 1.2446755e-38
5.4507003 -1.7173774 1.2825133 1.2170885e-38
5.5532784 -1.7315925 1.2768308 1.1710269e-38
5.6560407 -1.7506238 1.2702959 1.0696118e-38
5.7440448 -1.7623014 1.2584928 1.0142946e-38
5.8544383 -1.7557365 1.2521164 9.4057423e-39
5.9494643 -1.7562056 1.2395153 1.0143303e-38
6.0462923 -1.767078 1.2228155 1.041989e-38
6.1256175 -1.7703961 1.2026826 1.0880511e-38
5.0746794 -1.6069958 1.2885181 1.3184323e-38
5.1584949 -1.6251826 1.2743332 1.2815539e-38
5.2539263 -1.6391802 1.2641141 1.2631146e-38
5.3432541 -1.6475284 1.2501142 1.2447113e-38
5.4459691 -1.6498932 1.237815 1.2170528e-38
5.5471387 -1.6544822 1.2306515 1.1986497e-38
5.6465912 -1.67109 1.2305804 1.1802107e-38
5.7479405 -1.6773006 1.2260815 1.0327337e-38
5.8375859 -1.6846358 1.2127222 1.1064898e-38
5.9087105 -1.6938047 1.2019602 1.1064901e-38
4.7534475 -1.5066221 1.2943499 1.456726e-38
4.8550563 -1.5173477 1.277536 1.4106282e-38
4.956481 -1.5341038 1.2665042 1.3829693e-38
5.0457673 -1.5540414 1.2544209 1.3368714e-38
5.1513724 -1.5489233 1.2304646 1.318468e-38
5.2395277 -1.5641671 1.2177132 1.2816255e-38
5.3384457 -1.5832565 1.2091374 1.2539311e-38
5.4421 -1.5933762 1.2051339 1.2447115e-38
2.9915555 -1.4045923 1.2969069 1.7610443e-38
3.0555568 -1.4115336 1.2925131 1.7333855e-38
3.1317177 -1.418524 1.2964762 1.7518249e-38
3.2641518 -1.4028002 1.2968397 1.8809343e-38
3.3532765 -1.4092094 1.2919376 1.8163614e-38
3.4510734 -1.4191629 1.2904924 1.7702634e-38
3.5452335 -1.4175608 1.2858522 1.7241297e-38
3.6439297 -1.4203715 1.2896701 1.7240937e-38
3.7502213 -1.4131098 1.2869276 1.714874e-38
3.853148 -1.4129645 1.2901409 1.6871795e-38
3.944345 -1.4128323 1.2962199 1.696435e-38
4.0593328 -1.4095532 1.2927108 1.7240579e-38
4.1995945 -1.4098577 1.2783906 1.7609363e-38
4.217329 -1.4097275 1.2777051 1.7517168e-38
4.3529162 -1.4215391 1.2775834 1.6042401e-38
4.443347 -1.4280292 1.270661 1.5950198e-38
4.5510454 -1.4320024 1.2557847 1.548922e-38
4.6536226 -1.4465505 1.252306 1.5212272e-38
4.7519236 -1.4532479 1.2422854 1.4844208e-38
4.847549 -1.4621524 1.2330669 1.4475423e-38
4.9467525 -1.4674785 1.219084 1.4199552e-38
5.0364432 -1.4821306 1.2128707 1.3922246e-38
5.1131611 -1.4933999 1.2060781 1.3461987e-38
2.9834805 -1.3846468 1.2920183 1.8808986e-38
3.0568392 -1.3739519 1.2925131 2.083729e-38
3.1562665 -1.3390745 1.2841823 2.2680842e-38
3.2411451 -1.3348049 1.2582053 2.1667051e-38
3.3455548 -1.3470672 1.2467387 1.9914972e-38
3.4471877 -1.3503293 1.2453974 1.9361438e-38
3.547812 -1.351259 1.2460232 1.9269243e-38
3.6481667 -1.3556324 1.2504064 1.9268882e-38
3.7475495 -1.3538042 1.2507851 1.9730219e-38
3.8521993 -1.3469325 1.2437724 2.0651818e-38
3.9360814 -1.3440326 1.2362657 2.1020601e-38
4.0426455 -1.3512487 1.2346464 2.0559625e-38
4.1374793 -1.3582941 1.2339944 1.9914259e-38
4.2291236 -1.3678609 1.2354695 1.8070349e-38
4.3536873 -1.3704867 1.2251091 1.6595574e-38
4.4461904 -1.3801314 1.2197064 1.6226425e-38
4.5407882 -1.388113 1.2118852 1.5857284e-38
4.6316705 -1.3911574 1.2043823 1.5673251e-38
3.2576287 -1.2788037 1.260515 2.3234016e-38
3.3473339 -1.2546328 1.2437983 2.3234016e-38
3.4479423 -1.2360733 1.2462227 2.3234016e-38
3.5460629 -1.225309 1.2492542 2.3234018e-38
3.6472645 -1.2198988 1.250301 2.3234018e-38
3.7508662 -1.2223643 1.2504345 2.3234019e-38
3.8550608 -1.2219093 1.2560064 2.3234018e-38
3.9510067 -1.2162145 1.2441652 2.3234019e-38
4.0272551 -1.2052623 1.2311302 2.3326213e-38
3.5610497 -1.1705723 1.2924753 2.249681e-38
3.6532969 -1.1740462 1.2886164 2.2312061e-38
3.7543414 -1.1653637 1.2810131 2.0283396e-38
3.8492515 -1.15674 1.2758701 1.9361442e-38
3.9521062 -1.1466222 1.2757757 1.9638026e-38
4.0548348 -1.1541198 1.2581518 2.1113875e-38
4.147687 -1.156001 1.2395461 2.249645e-38
4.2443647 -1.1387556 1.222371 2.2957428e-38
4.3212371 -1.11849 1.2067496 2.3234013e-38
4.0713234 -1.0922246 1.2332637 1.8348008e-38
4.1570487 -1.0865409 1.2328589 1.8532394e-38
4.2541385 -1.0809501 1.2373122 1.8256521e-38
4.3547997 -1.0600079 1.2522715 1.6228572e-38
4.4368081 -1.0231324 1.2494006 1.4753439e-38
4.5445957 -1.0138705 1.2125164 1.5675754e-38
4.6449838 -1.0132011 1.2061911 1.5860866e-38
4.7484093 -1.0161201 1.2042 1.6228927e-38
4.8423719 -1.0171568 1.202281 1.6228931e-38
4.3903136 -0.91537058 1.2897986 1.2909166e-38
4.4515657 -0.9535203 1.2636921 1.3554537e-38
4.5475478 -0.94997507 1.2237443 1.4200264e-38
4.6343861 -0.96249729 1.2084543 1.4569407e-38
4.7213964 -0.99357957 1.203352 1.5215492e-38
4.292676 -0.80323964 1.2974341 1.2355993e-38
4.3520727 -0.84355634 1.2732224 1.2724775e-38
4.446682 -0.85054672 1.2330958 1.3093199e-38
4.5342546 -0.86576879 1.2095191 1.346234e-38
4.6039701 -0.89469838 1.2022266 1.3923318e-38
4.2630143 -0.74099451 1.2692904 1.217088e-38
4.3440547 -0.75358081 1.2311981 1.2631859e-38
4.4347568 -0.78118646 1.2148155 1.2908808e-38
4.1971583 -0.62778187 1.2871826 1.1617702e-38
4.2285576 -0.65415633 1.244441 1.1986486e-38
4.3142419 -0.69089019 1.2068466 1.2447106e-38
4.0993738 -0.50389612 1.2153552 1.0972694e-38
4.1823697 -0.54796481 1.2463502 1.1249279e-38
4.2033048 -0.56512791 1.2605464 1.1341115e-38
3.8504133 -0.41268772 1.2501155 9.0362241e-39
3.9431491 -0.43789747 1.256609 9.220614e-39
4.0523167 -0.47020373 1.2448888 8.6674402e-39
4.1445842 -0.48566779 1.2748226 7.561094e-39
3.3978164 -0.30246538 1.2500073 8.2057488e-39
3.4473352 -0.31510308 1.25571 8.39014e-39
3.5502369 -0.33743823 1.2540696 8.4826958e-39
3.6475747 -0.35738397 1.2505249 8.2983045e-39
3.7464519 -0.38283455 1.2529049 8.3904988e-39
3.806273 -0.39922795 1.2569469 8.6674444e-39
3.0858009 -0.20692781 1.2123923 8.5745285e-39
3.1571627 -0.22021514 1.2502055 8.6667241e-39
3.2506778 -0.25249299 1.252957 8.4823329e-39
3.3487911 -0.28450918 1.2538 8.297943e-39
3.4018233 -0.29791439 1.2048565 1.0327326e-38
2.9620626 -0.12150356 1.2309954 9.2198965e-39
3.0469253 -0.15616928 1.2539878 9.0355066e-39
3.1212366 -0.18475084 1.2794907 8.943311e-39
2.7880902 -0.0088611282 1.2077092 1.0970896e-38
2.8664932 -0.044057138 1.2274647 9.4961247e-39
2.9375668 -0.06060186 1.2681774 9.5883189e-39
3.0050101 -0.096257679 1.2940807 9.6808732e-39
2.6743429 0.091582268 1.2097561 9.68016e-39
2.7601111 0.06507989 1.2304114 9.6801586e-39
2.8511837 0.043720134 1.2638085 1.0048941e-38
2.9106035 0.033136617 1.2926416 9.9567441e-39
2.3736525 0.17973301 1.2443242 1.0785426e-38
2.4374645 0.14301547 1.2573689 1.0877982e-38
2.5411768 0.1207145 1.2608858 1.0325888e-38
2.6490963 0.11810122 1.2514989 9.1273477e-39
2.7446861 0.11484171 1.2715865 5.4391666e-39
2.8097057 0.1106409 1.2950956 2.304518e-39
2.3519781 0.24996266 1.2444897 1.0785071e-38
2.3816578 0.32263032 1.2522398 1.2168364e-38
2.4386489 0.37289497 1.2494704 1.2353473e-38
2.5000808 0.39781377 1.2010711 1.1892854e-38
2.4831965 0.40786132 1.2667261 1.2076526e-38
2.5368388 0.42849091 1.2430421 1.29992e-38
2.6562617 0.46967199 1.2471105 1.124784e-38
2.7241359 0.49241829 1.2501569 1.0510274e-38
2.7647696 0.54335231 1.2341688 9.7730689e-39
2.8157222 0.56122196 1.2712302 9.6805117e-39
2.7999315 0.60306102 1.2037458 1.0141491e-38
2.8623693 0.63614452 1.2348727 9.864903e-39
2.9254873 0.67623687 1.2598585 9.6808704e-39
2.9748592 0.71143168 1.2496955 9.6805103e-39
3.0511069 0.74571621 1.2486522 9.496119e-39
3.1286006 0.78534269 1.2500906 9.3120879e-39
3.1763892 0.81997168 1.2454417 9.1280554e-39
3.2310045 0.8702575 1.2516966 8.7589141e-39
3.1627119 0.97223794 1.2451656 8.8507524e-39
3.2319627 0.92592144 1.2533981 8.7589155e-39
3.0867851 1.0522913 1.2295589 8.4816126e-39
3.1194999 1.0393927 1.2699387 8.8503937e-39
2.2651145 1.1433995 1.2181807 9.8649114e-39
2.3530462 1.1527507 1.2431229 9.5883231e-39
2.4457636 1.1673234 1.2483865 9.4039332e-39
2.5451546 1.1901228 1.248023 9.3117376e-39
3.0951288 1.1117641 1.219286 7.9284416e-39
3.1184983 1.1587347 1.2547807 7.928443e-39
2.5930545 1.2003319 1.236089 9.3124565e-39
2.6457584 1.2106833 1.2539693 8.8511196e-39
2.7491562 1.2305001 1.2550297 8.3905016e-39
2.8505607 1.2470841 1.2569267 7.9295234e-39
2.9534929 1.2583095 1.2580214 7.3759923e-39
3.0586383 1.2451769 1.2529702 7.1912409e-39
3.1068187 1.2133614 1.23667 7.375272e-39
2.2299294 1.6860501 1.2079343 1.5212271e-38
2.2504044 1.7472873 1.2135851 1.5212994e-38
3.5478587 -3.1241148 1.3891486 1.6505162e-38
3.4804244 -3.025856 1.3695271 1.6321131e-38
3.5141172 -3.0765061 1.3788034 1.6413326e-38
3.4326537 -2.9476986 1.3580809 1.6044544e-38
3.3600574 -2.8457868 1.349762 1.5583205e-38
3.4036019 -2.8960819 1.3660614 1.5767597e-38
3.2790279 -2.7332106 1.340679 1.4937477e-38
3.3120308 -2.7653291 1.3707149 1.4753086e-38
3.2581322 -2.6430101 1.3430481 1.4199554e-38
3.3185439 -2.6291926 1.3902951 1.3554184e-38
3.2698414 -2.5689778 1.3247733 1.3830771e-38
3.348206 -2.5562761 1.3434314 1.3554186e-38
3.4475138 -2.5476301 1.3591146 1.3185403e-38
3.5194931 -2.5390961 1.3865231 1.2539675e-38
3.3746712 -2.4654491 1.3035418 1.3093206e-38
3.451894 -2.4512081 1.3374153 1.2263448e-38
3.5230193 -2.4501688 1.3843391 1.2539676e-38
3.3861568 -2.3628855 1.3031144 1.1802469e-38
3.4471877 -2.3459804 1.3308852 1.263187e-38
3.5318191 -2.3560102 1.3800526 1.2816263e-38
4.9797287 -2.3025069 1.3046523 1.2355641e-38
5.0532718 -2.3046942 1.3073648 1.217125e-38
5.1616807 -2.3085773 1.3202263 1.1895023e-38
5.2528787 -2.3144634 1.3278201 1.1895023e-38
5.3500295 -2.3167827 1.3278103 1.1895023e-38
5.4446902 -2.3122859 1.3167191 1.1895023e-38
5.5214753 -2.3036702 1.3050593 1.1894663e-38
3.4588163 -2.2475717 1.3294388 1.2908459e-38
3.5450952 -2.2443984 1.3657116 1.2631872e-38
3.6054292 -2.2740798 1.399204 1.2724068e-38
4.3643465 -2.2025485 1.3041134 1.2355645e-38
4.4567242 -2.2079716 1.3136376 1.2171252e-38
4.5544639 -2.2158468 1.3313354 1.1987221e-38
4.6515622 -2.2256753 1.3461987 1.1987221e-38
4.7499366 -2.2420959 1.3478531 1.2078698e-38
4.8494887 -2.2577746 1.3481152 1.1986861e-38
4.9468341 -2.2693551 1.3508186 1.1894664e-38
5.0481381 -2.2792213 1.356056 1.1894663e-38
5.1454558 -2.2836573 1.3689829 1.1710272e-38
5.2499042 -2.2865007 1.3765836 1.1802467e-38
5.354054 -2.282171 1.3769459 1.1618076e-38
5.4493699 -2.279542 1.3639655 1.1618436e-38
5.554347 -2.2718344 1.3521546 1.1433685e-38
5.6481276 -2.2434802 1.3457028 1.0050752e-38
5.712625 -2.2133482 1.3487256 1.0512087e-38
3.4799123 -2.1345088 1.3206249 1.2539676e-38
3.5456381 -2.1405938 1.363975 1.2447481e-38
3.6329691 -2.1093311 1.3869932 1.2447481e-38
3.8984907 -2.1017864 1.3104647 1.2355285e-38
3.9517291 -2.113342 1.3468159 1.2170894e-38
4.0520954 -2.1438005 1.3489064 1.2170894e-38
4.152431 -2.1648269 1.3502194 1.2171252e-38
4.2493973 -2.1766798 1.3463471 1.2079417e-38
4.3473229 -2.1806591 1.3506576 1.2079058e-38
4.4443893 -2.1851945 1.3618124 1.1986861e-38
4.5426707 -2.1917784 1.3798251 1.1802829e-38
4.6169519 -2.1973796 1.3921173 1.1710633e-38
5.7380691 -2.1508543 1.3519869 1.1250011e-38
3.4718702 -2.0951266 1.3076155 1.2631872e-38
3.5571637 -2.0850406 1.3222914 1.2447481e-38
3.6537168 -2.0823636 1.3430128 1.2447481e-38
3.7451155 -2.0783434 1.3539305 1.2263448e-38
3.8464267 -2.0867283 1.3511839 1.2263448e-38
3.9079084 -2.0980909 1.3731551 1.2170894e-38
5.7454691 -2.0503168 1.3499237 1.0881228e-38
5.5743532 -1.9126017 1.3882382 1.1433682e-38
5.6659579 -1.93744 1.3723006 1.0696476e-38
5.7279725 -1.9532285 1.3315177 1.0328053e-38
5.3652463 -1.8069838 1.3893847 1.2169811e-38
5.4576259 -1.8298312 1.3757459 1.1893582e-38
5.5477099 -1.856546 1.3650141 1.1432962e-38
5.6558642 -1.8502942 1.3399808 1.0327331e-38
5.7245235 -1.869319 1.3209932 1.0696117e-38
5.1723886 -1.7126355 1.3771695 1.2907734e-38
5.2473474 -1.7373391 1.3624145 1.2538953e-38
5.3432536 -1.755652 1.3457414 1.2262363e-38
5.4473419 -1.7677957 1.328077 1.1893938e-38
5.5427346 -1.7834358 1.3193754 1.1618069e-38
5.6325855 -1.7893535 1.30829 1.0788312e-38
3.3513522 -1.6141876 1.3923738 1.4475783e-38
3.4534636 -1.6203091 1.3884536 1.4383587e-38
3.5449648 -1.6246618 1.3923903 1.456798e-38
3.6528027 -1.6161661 1.3896579 1.4845283e-38
3.746305 -1.6203994 1.391543 1.4660173e-38
3.8471079 -1.6146121 1.393663 1.4567977e-38
3.9505794 -1.6099856 1.3922913 1.4568336e-38
4.0299239 -1.6125275 1.3962803 1.4660532e-38
4.1329117 -1.6020398 1.3981496 1.4660174e-38
4.8763361 -1.6100787 1.3870615 1.4106999e-38
4.9557586 -1.6246638 1.3714658 1.3646021e-38
5.053051 -1.6420336 1.3508605 1.3276877e-38
5.1428437 -1.6711931 1.3368945 1.2907736e-38
5.2314558 -1.6883292 1.3132225 1.2447116e-38
5.305294 -1.6968641 1.3011708 1.2262721e-38
3.077848 -1.5095673 1.387759 1.7334212e-38
3.1540051 -1.5201247 1.3663076 1.5766526e-38
3.2526612 -1.546147 1.3616499 1.5213351e-38
3.3501215 -1.5538458 1.3601023 1.5121155e-38
3.4476707 -1.5502745 1.3621318 1.5397742e-38
3.5507355 -1.5489948 1.3648267 1.5582132e-38
3.6446059 -1.5554786 1.3633102 1.5766522e-38
3.7448144 -1.5547609 1.3622323 1.5305544e-38
3.8485918 -1.5522633 1.363276 1.5213708e-38
3.9503286 -1.5532373 1.3694125 1.5305544e-38
4.0469618 -1.5567225 1.3764648 1.5305545e-38
4.1443791 -1.5589572 1.3843907 1.5305902e-38
4.236609 -1.5368319 1.3833402 1.5766165e-38
4.3308287 -1.5210509 1.3776647 1.5858359e-38
4.4621396 -1.5273832 1.3711312 1.5857644e-38
4.5623517 -1.5256925 1.3598163 1.5581772e-38
4.6628804 -1.5339745 1.3534533 1.5212988e-38
4.7549944 -1.5464951 1.346016 1.4660174e-38
4.8488774 -1.5688138 1.3435249 1.4198836e-38
4.9518209 -1.5825958 1.3247443 1.3737496e-38
5.0204949 -1.5937009 1.3109864 1.3460551e-38
2.9745677 -1.4256214 1.3597612 2.1574496e-38
3.0440419 -1.4626271 1.3440399 1.7426049e-38
3.1527491 -1.4559575 1.3161807 1.6688485e-38
3.2449613 -1.4480484 1.314959 1.7241659e-38
3.3484309 -1.4604383 1.3252072 1.7241658e-38
3.4473069 -1.4687625 1.3269449 1.7149459e-38
3.5492163 -1.4721087 1.3204993 1.6780677e-38
3.6520722 -1.4732298 1.317997 1.6411893e-38
3.7523122 -1.4651283 1.3182039 1.650409e-38
3.8547528 -1.4683453 1.3234992 1.6411534e-38
3.9530451 -1.4647524 1.3248252 1.631898e-38
4.0440803 -1.4577752 1.3272923 1.6227144e-38
4.149087 -1.4630142 1.3335469 1.6226784e-38
4.2437806 -1.4638162 1.3291191 1.6134591e-38
4.3546672 -1.4765579 1.3318543 1.6042396e-38
4.4543734 -1.4786276 1.3237414 1.5766165e-38
4.5621715 -1.485509 1.3163649 1.5581771e-38
4.6475773 -1.4931707 1.3074185 1.4936764e-38
2.9834297 -1.3809861 1.3517753 2.2865234e-38
3.0445213 -1.343742 1.3470829 2.3234016e-38
3.1422489 -1.3133371 1.3449314 2.3234016e-38
3.1911967 -1.2973406 1.3613353 2.3326212e-38
3.2490971 -1.2700993 1.3529353 2.3234016e-38
3.3474226 -1.2335591 1.3417732 2.3049984e-38
3.4415298 -1.2171772 1.3293204 2.2680842e-38
3.543946 -1.212335 1.3353776 2.1113517e-38
3.6488349 -1.211 1.3784715 1.733385e-38
3.7154634 -1.2044376 1.3887902 1.6320054e-38
3.4668956 -1.1935929 1.3268753 2.2588648e-38
3.5381625 -1.1850926 1.3175241 2.120607e-38
3.6550088 -1.1811771 1.3335841 1.678104e-38
3.761287 -1.1793249 1.3594005 1.4660536e-38
3.8514032 -1.1577572 1.3583441 1.4107358e-38
3.9477532 -1.1317122 1.3527766 1.4015159e-38
4.0465112 -1.1106458 1.3509312 1.3923325e-38
4.1454325 -1.1048433 1.3306848 1.4384302e-38
4.2283478 -1.1030527 1.3237115 1.4753082e-38
4.0910988 -1.0989822 1.3929093 1.3185397e-38
4.157043 -1.0955188 1.381222 1.336979e-38
4.2601171 -1.0852102 1.3627647 1.373893e-38
4.3538904 -1.0501462 1.3526273 1.3554179e-38
4.4108534 -1.0214049 1.3196336 1.3277952e-38
3.1544163 -0.91204441 1.3959981 1.1248565e-38
4.3652778 -0.94651103 1.356545 1.2632221e-38
4.412941 -0.97976118 1.3175801 1.30932e-38
3.1509538 -0.87393326 1.3975567 1.1156008e-38
4.272131 -0.83081436 1.357896 1.2079406e-38
4.3194084 -0.87272692 1.3353249 1.244783e-38
4.1798959 -0.72743213 1.3654363 1.1618063e-38
4.2262893 -0.76395482 1.3365927 1.1894652e-38
4.1590886 -0.64769268 1.3500446 1.1341115e-38
4.2032251 -0.6909973 1.3052666 1.1802094e-38
4.1713538 -0.55386209 1.3557146 1.0603548e-38
4.2057228 -0.5372448 1.3166561 1.078794e-38
3.6888323 -0.40287527 1.3810049 8.4823329e-39
3.7558961 -0.41272846 1.3627036 8.5745299e-39
3.844898 -0.42371258 1.3503536 8.1139119e-39
3.9433458 -0.43922657 1.3463653 7.1001173e-39
4.0441813 -0.46034867 1.3451321 7.6532897e-39
4.144732 -0.48712307 1.3505512 9.3128082e-39
3.4498942 -0.31965429 1.3460424 8.6667255e-39
3.54895 -0.35642609 1.351229 8.3901386e-39
3.6443374 -0.38404343 1.3463664 8.39014e-39
3.7385075 -0.39501444 1.3171656 8.6670871e-39
3.1866117 -0.20735466 1.3074653 8.943311e-39
3.2617524 -0.23114382 1.344528 8.943311e-39
3.3474495 -0.27475491 1.3520674 8.6667241e-39
3.4085722 -0.29768702 1.3842825 8.6667241e-39
3.0750029 -0.12368737 1.3227596 9.496482e-39
3.1487308 -0.15153962 1.3540248 9.496482e-39
3.2183089 -0.18723333 1.3739992 9.3120907e-39
2.9765668 -0.02727787 1.3182352 9.6808746e-39
3.0485075 -0.051953726 1.3564023 9.8652659e-39
3.1139991 -0.079559147 1.3896809 1.0049298e-38
2.5643792 0.096467473 1.3652793 9.7712738e-39
2.641516 0.094618961 1.3763543 8.1121154e-39
2.8716619 0.08376956 1.3147745 8.3894226e-39
2.9518166 0.049546894 1.3365718 9.4035717e-39
3.0242498 0.036159944 1.3834265 9.4961261e-39
2.3941324 0.17992455 1.3038691 9.677639e-39
2.4502208 0.13462649 1.3200552 9.8620289e-39
2.5335321 0.10807116 1.3300931 1.0047859e-38
2.6521044 0.10881749 1.3237755 8.9429565e-39
2.7527511 0.11550672 1.3406103 7.8366103e-39
2.8523986 0.11667787 1.356782 4.9781885e-39
2.9507649 0.11250482 1.3795298 2.3048767e-39
2.3914573 0.33851406 1.3025693 1.1246408e-38
2.4269691 0.37819329 1.3120999 1.179958e-38
2.4740922 0.41598666 1.3247584 1.3274708e-38
2.5514021 0.44381818 1.345032 1.2537143e-38
2.6474369 0.46783194 1.3478535 1.1339317e-38
2.7336929 0.48962861 1.3470024 1.0970534e-38
2.7848418 0.50381243 1.3591923 1.0602111e-38
2.8507006 0.52818584 1.345842 1.0049296e-38
2.9392185 0.55989504 1.3693404 9.4961218e-39
3.0269549 0.58792621 1.3973969 8.9425907e-39
2.8900356 0.61830842 1.3029341 9.5886762e-39
2.9626226 0.65786016 1.3239186 9.4964806e-39
3.0356314 0.67784381 1.3689277 9.2195336e-39
2.9884646 0.71050286 1.3070683 9.5883161e-39
3.0580344 0.73493606 1.3353586 9.2198937e-39
3.1386766 0.77849472 1.3588668 9.3117292e-39
3.1804893 0.82949215 1.3690374 9.496119e-39
3.2299781 0.86996531 1.3501542 9.1273379e-39
3.1672144 0.96810502 1.3627532 9.2195336e-39
3.2276492 0.92800272 1.3433703 9.2195336e-39
3.0986269 1.0926293 1.3953028 9.0351451e-39
3.1284158 1.0476232 1.3522727 9.0351451e-39
2.3950665 1.1524909 1.303514 8.7585638e-39
2.4544458 1.1651667 1.3199804 8.4819797e-39
2.5502355 1.1905501 1.3443187 7.7447734e-39
2.769418 1.1937209 1.3895829 7.4671089e-39
2.849642 1.1910323 1.3875469 7.5596605e-39
2.9517961 1.1926824 1.387213 7.836246e-39
3.0670707 1.171688 1.3737684 8.020996e-39
3.1181583 1.1462059 1.3396118 8.3890596e-39
2.5987949 1.2008498 1.3253539 8.0210002e-39
2.6539278 1.2075845 1.3531791 7.2834365e-39
2.7470608 1.2129841 1.3470775 7.0990453e-39
2.8498445 1.2199303 1.3408527 7.0986837e-39
2.9506979 1.2225174 1.3383464 7.283075e-39
3.0408986 1.2152318 1.3262371 7.5596619e-39
3.1014144 1.2004366 1.3020393 7.836246e-39
3.5981247 -3.2012343 1.453469 1.632077e-38
3.6101856 -3.2084904 1.491333 1.6044184e-38
3.5752895 -3.1548305 1.4471641 1.6136379e-38
3.6046283 -3.1914189 1.4898996 1.5951988e-38
3.4887865 -3.0182209 1.4453397 1.549101e-38
3.519156 -3.0652044 1.455585 1.5675401e-38
3.4576144 -2.957088 1.4520878 1.4937837e-38
3.3711491 -2.8331845 1.45736 1.4015165e-38
3.4089885 -2.8871257 1.4631364 1.4291392e-38
3.3535354 -2.7509084 1.4541593 1.3554184e-38
3.4276023 -2.7116694 1.4913582 1.281662e-38
3.3567178 -2.6620789 1.426592 1.3277597e-38
3.4489036 -2.6531296 1.4530563 1.281662e-38
3.5457981 -2.6408839 1.4736034 1.1986502e-38
3.6090443 -2.6147768 1.4938923 1.2724068e-38
3.3881202 -2.5964665 1.400405 1.3277238e-38
3.461261 -2.591224 1.4084184 1.3000654e-38
3.5580518 -2.5654685 1.4313214 1.2355285e-38
3.6264019 -2.5559278 1.4778074 1.3000654e-38
3.5792871 -2.4468939 1.4357489 1.2816263e-38
3.6141624 -2.4468837 1.4824432 1.2631872e-38
3.578975 -2.3584599 1.4308373 1.2447481e-38
3.6252811 -2.340126 1.4789258 1.2355285e-38
3.5787079 -2.2643657 1.4140463 1.2447481e-38
3.637342 -2.2543876 1.4556978 1.2355285e-38
3.7109888 -2.2085783 1.4954882 1.2263089e-38
4.6884289 -2.2029934 1.4082568 1.1802111e-38
4.7581525 -2.2086308 1.4215199 1.1617719e-38
4.8512826 -2.2152765 1.440915 1.1433329e-38
4.954495 -2.2265427 1.4539285 1.1433329e-38
5.0495276 -2.2335279 1.4512655 1.134149e-38
5.1517358 -2.2360296 1.453118 1.1341489e-38
5.2467561 -2.237711 1.4465623 1.1341489e-38
5.3489261 -2.2376649 1.4433261 1.1157098e-38
5.4534793 -2.2339463 1.4482805 1.1157098e-38
5.5419807 -2.2266979 1.4433516 1.0788317e-38
5.6539736 -2.2194364 1.4488736 9.5897734e-39
5.7109475 -2.2079494 1.4241846 9.6819677e-39
3.5845542 -2.1693976 1.4109919 1.2263089e-38
3.6535442 -2.1466053 1.4323262 1.2171254e-38
3.7474344 -2.1333642 1.4619224 1.2078698e-38
3.8402586 -2.1103981 1.4778666 1.2079055e-38
3.9505854 -2.1094606 1.4548695 1.198686e-38
4.0591855 -2.1302156 1.4542726 1.1986501e-38
4.1469636 -2.1365175 1.4497283 1.1802829e-38
4.2481875 -2.1479144 1.450466 1.1710633e-38
4.3537674 -2.1592295 1.4537385 1.1618439e-38
4.4505739 -2.1659782 1.4505408 1.1526243e-38
4.5456028 -2.1707547 1.451791 1.1525883e-38
4.6479025 -2.180943 1.4546541 1.1433329e-38
4.7399926 -2.1849296 1.4704325 1.1248937e-38
4.8344979 -2.1945021 1.4870596 1.1064545e-38
4.9310946 -2.1984074 1.4974755 1.1064546e-38
5.0183949 -2.1987691 1.4986808 1.0972351e-38
5.1630034 -2.197994 1.4986167 1.1064902e-38
5.2558064 -2.1889818 1.4947015 1.0880511e-38
5.3451028 -2.1900547 1.4921154 1.069612e-38
5.4477134 -2.1950545 1.4940275 1.0603924e-38
5.6806617 -2.1680269 1.4886148 9.7741633e-39
5.7372947 -2.1456649 1.4468684 1.0788314e-38
3.7574658 -2.0923264 1.4145558 1.2170892e-38
3.8493712 -2.0946105 1.4304478 1.2170891e-38
3.9092009 -2.0978901 1.4212122 1.2170891e-38
5.5787616 -2.014282 1.494705 1.1063822e-38
5.6618466 -2.0277839 1.475714 1.0971626e-38
5.7348862 -2.059638 1.4415221 9.7741619e-39
3.7944565 -1.9088457 1.4999329 1.2447837e-38
3.8499608 -1.9125198 1.4940186 1.2724065e-38
3.9407091 -1.9188448 1.4942008 1.300101e-38
4.0401459 -1.9040833 1.4978701 1.2540032e-38
4.1656466 -1.9074863 1.4972117 1.2632228e-38
4.2500644 -1.909965 1.4954411 1.2447837e-38
4.356966 -1.9105995 1.491375 1.2263445e-38
4.4416456 -1.9139378 1.4968355 1.2355641e-38
4.5521736 -1.9090831 1.4948474 1.2263445e-38
4.6506462 -1.9119111 1.4943057 1.235564e-38
4.7499185 -1.9135585 1.496887 1.2170529e-38
5.3731408 -1.909763 1.4960788 1.2354558e-38
5.4600582 -1.9269217 1.4811524 1.1985778e-38
5.5547485 -1.9494247 1.4599504 1.1248213e-38
5.6440973 -1.9756285 1.4403956 1.0418812e-38
5.7047815 -1.9974692 1.4073788 1.1157096e-38
3.5852077 -1.8097792 1.4947827 1.346163e-38
3.6632388 -1.8258795 1.4820995 1.3093206e-38
3.7467368 -1.8497546 1.4764187 1.2908815e-38
3.843497 -1.850543 1.4688426 1.300101e-38
3.9521041 -1.8453892 1.4717209 1.2816619e-38
4.0491877 -1.8498803 1.4759068 1.2816619e-38
4.1529183 -1.8414361 1.4736507 1.2816619e-38
4.2453136 -1.8459096 1.4710059 1.2632228e-38
4.352952 -1.8431607 1.4770037 1.2724423e-38
4.4499536 -1.8455403 1.4755996 1.2540032e-38
4.5515113 -1.848472 1.4790074 1.2632226e-38
4.6489263 -1.8471653 1.4860921 1.2724065e-38
4.7393303 -1.8619614 1.4952327 1.2631508e-38
4.8110819 -1.8893025 1.4992361 1.2538952e-38
5.1930146 -1.8032959 1.4983864 1.3276517e-38
5.2640958 -1.8298794 1.4774363 1.2723343e-38
5.3476338 -1.8503826 1.4518406 1.2354559e-38
5.4441304 -1.8756605 1.4333103 1.1801388e-38
5.5155444 -1.8930155 1.4163773 1.1248214e-38
3.3993037 -1.7002513 1.4810439 1.456798e-38
3.4630084 -1.7232462 1.4682413 1.4015165e-38
3.5517869 -1.7477239 1.4547232 1.3646381e-38
3.6479175 -1.7538718 1.440153 1.3369793e-38
3.7512774 -1.75086 1.4357125 1.364638e-38
3.848156 -1.7504613 1.4386811 1.3554184e-38
3.9490042 -1.7527177 1.4450243 1.3461988e-38
4.0516529 -1.7497255 1.4517401 1.3554184e-38
4.1480899 -1.7536236 1.4511806 1.3461987e-38
4.2525258 -1.7486826 1.4506446 1.3369793e-38
4.3503451 -1.7528969 1.455777 1.3277597e-38
4.4467726 -1.7497983 1.4630765 1.3369794e-38
4.5453935 -1.7536963 1.4748653 1.3554184e-38
4.648241 -1.7544061 1.4894682 1.3646378e-38
4.7376285 -1.7347015 1.4955076 1.4014802e-38
4.8471746 -1.715482 1.4946859 1.4382867e-38
4.9577599 -1.717965 1.48868 1.429067e-38
5.0628252 -1.7245091 1.4635041 1.3737857e-38
5.1470704 -1.7528685 1.4476355 1.3184681e-38
5.2385182 -1.779061 1.4291501 1.2631147e-38
5.3038931 -1.7958884 1.4079515 1.2354561e-38
2.9799097 -1.6039377 1.495167 1.7609721e-38
3.0664668 -1.6099496 1.4879982 1.7426047e-38
3.1540356 -1.6213465 1.484718 1.7149459e-38
3.2578843 -1.6245577 1.457688 1.5582852e-38
3.3492281 -1.6549817 1.4454194 1.4660176e-38
3.4453351 -1.672109 1.423907 1.4107359e-38
3.5410218 -1.6760709 1.4100139 1.3922608e-38
3.6517811 -1.6635394 1.4092554 1.4199555e-38
3.7478356 -1.6726749 1.4121161 1.4383945e-38
3.8474665 -1.6654018 1.4145478 1.4199195e-38
3.950423 -1.6658391 1.4210914 1.4199555e-38
4.0547376 -1.6619132 1.4192312 1.4199554e-38
4.1465955 -1.6572422 1.4194714 1.4199555e-38
4.2493253 -1.6517048 1.4261373 1.4291749e-38
4.3503013 -1.6565948 1.436352 1.429139e-38
4.4440727 -1.6512707 1.446328 1.475201e-38
4.5461235 -1.6564369 1.4613998 1.4843844e-38
4.6560388 -1.6526011 1.4656461 1.4936401e-38
4.7552037 -1.6621394 1.4665245 1.4936042e-38
4.8486047 -1.6559747 1.4515718 1.4567977e-38
4.9520321 -1.6676812 1.4394966 1.4015162e-38
5.0339236 -1.6888307 1.4233836 1.3554184e-38
2.8907123 -1.5571915 1.4715647 1.8900103e-38
2.9556916 -1.5453622 1.4645993 2.019156e-38
3.040483 -1.542129 1.4622642 2.0375952e-38
3.1423202 -1.5719954 1.4446565 1.7426406e-38
3.2323802 -1.5836011 1.4177332 1.5305907e-38
4.183569 -1.5976132 1.4002573 1.4844923e-38
4.249609 -1.5859745 1.4062216 1.5121151e-38
4.3459387 -1.5779965 1.4130042 1.5581412e-38
4.45119 -1.5720628 1.4163092 1.5581412e-38
4.5511441 -1.5852922 1.4214709 1.5489578e-38
4.6438642 -1.5790668 1.4068937 1.548886e-38
4.7443328 -1.5927168 1.407679 1.5120792e-38
2.9898269 -1.4382886 1.4353833 2.3233657e-38
3.0118818 -1.4647129 1.4700794 2.3233657e-38
2.9899428 -1.3625748 1.4587672 2.3234016e-38
3.0378451 -1.323926 1.4416677 2.3141821e-38
3.1285203 -1.3071959 1.4268081 2.3049625e-38
3.0678728 -1.2966611 1.4720839 2.2220222e-38
3.1597762 -1.2897086 1.4437916 2.2589006e-38
3.2371092 -1.2723082 1.4346281 2.1943635e-38
3.3465304 -1.2723043 1.4544581 1.9823495e-38
3.4522562 -1.2678723 1.4486648 1.8808982e-38
3.554914 -1.2567785 1.4472212 1.7610437e-38
3.6534686 -1.2296115 1.4583749 1.5582848e-38
3.7140441 -1.2096069 1.4214169 1.5766878e-38
3.2963636 -1.101876 1.4956362 1.2262721e-38
3.3564689 -1.1234974 1.4847623 1.1709548e-38
3.4374766 -1.1462089 1.4892752 1.1340411e-38
3.5633504 -1.1145527 1.4957157 1.2170525e-38
3.6567655 -1.1477432 1.4677061 1.3092483e-38
3.7456024 -1.1526937 1.4260581 1.3553821e-38
3.8457994 -1.1312149 1.4171144 1.3092486e-38
3.9425595 -1.1161751 1.4179226 1.3369429e-38
4.0293541 -1.1042165 1.4136184 1.2816615e-38
3.0585878 -1.013294 1.4925015 1.1617351e-38
3.1549206 -1.023563 1.4761604 1.1801741e-38
3.2488813 -1.050397 1.4648407 1.1801741e-38
3.340867 -1.0552386 1.4536318 1.0234781e-38
3.4524033 -1.0498734 1.4731704 1.1340765e-38
3.550703 -1.0614307 1.4898571 1.1986133e-38
3.6632354 -1.0604805 1.4818605 1.2170524e-38
3.7450979 -1.0497218 1.4538513 1.2170525e-38
3.8425987 -1.0462431 1.444308 1.2262721e-38
3.9517047 -1.0561292 1.4554046 1.2815895e-38
4.0557604 -1.0618719 1.4612272 1.2816615e-38
4.1523085 -1.0717914 1.4530905 1.2632224e-38
4.2530756 -1.0557214 1.4496427 1.2540028e-38
4.3252492 -1.0217577 1.4432031 1.2447831e-38
2.8928559 -0.90692961 1.4860352 1.1155652e-38
2.9498491 -0.93748695 1.4723519 1.1248209e-38
3.0505793 -0.94678557 1.4519769 1.1432599e-38
3.1439402 -0.95424592 1.4247929 1.1525153e-38
3.2526076 -0.94964981 1.4180764 9.4975722e-39
3.3510485 -0.9507103 1.4399884 1.0050387e-38
3.4519038 -0.9483729 1.470423 1.0879786e-38
3.5446079 -0.96042544 1.4936086 1.1525153e-38
3.6808038 -0.99017811 1.493781 1.1893936e-38
3.747643 -0.97600675 1.4847075 1.1801741e-38
3.8491924 -0.97108543 1.4826773 1.1801741e-38
3.9430604 -0.96702695 1.484416 1.180174e-38
4.030127 -0.98030138 1.4914573 1.1894297e-38
4.2967815 -0.90566874 1.4951775 1.1618428e-38
4.3345542 -0.95316744 1.4491874 1.1895015e-38
2.8864775 -0.86938763 1.4803007 1.0971259e-38
2.94417 -0.8441059 1.4657897 1.1063094e-38
3.0498016 -0.84766501 1.4405575 1.1155649e-38
3.1362088 -0.84457576 1.4097873 1.1156008e-38
3.2512465 -0.85311812 1.4201387 9.8652701e-39
3.3466434 -0.84552079 1.4463345 8.9429565e-39
3.4481025 -0.85011888 1.4792898 9.6805215e-39
3.5124087 -0.88237351 1.496297 1.0602838e-38
4.1868687 -0.80760419 1.4913509 1.1802457e-38
4.2575274 -0.84793431 1.4506226 1.1710622e-38
4.3040347 -0.89540046 1.4237205 1.2079406e-38
2.9775984 -0.7921524 1.4897399 1.1062373e-38
3.0649283 -0.76062256 1.4735974 1.1154926e-38
3.1448143 -0.74734181 1.4372324 1.1155286e-38
3.2395289 -0.74592966 1.4289774 1.0879416e-38
3.3526113 -0.75472784 1.462588 9.6808746e-39
3.4359875 -0.75010854 1.4900156 8.5738096e-39
4.0816331 -0.71306419 1.4900274 1.1156363e-38
4.1555166 -0.74652886 1.4540793 1.1433672e-38
4.2086649 -0.78919798 1.426229 1.1434034e-38
3.0794196 -0.6363802 1.4876349 1.1154563e-38
3.1389246 -0.65498286 1.4564637 1.1062729e-38
3.2394459 -0.65045303 1.4453082 1.0786499e-38
3.3453722 -0.64700824 1.474718 1.032588e-38
3.4144959 -0.67035758 1.4918292 1.0049654e-38
4.0702529 -0.6428479 1.4688098 1.0879775e-38
4.1151271 -0.66007602 1.4235101 1.0972332e-38
2.8929396 -0.50451851 1.4929959 1.0970174e-38
2.9557707 -0.52866662 1.4732522 1.1062369e-38
3.0462644 -0.55467522 1.4588225 1.0970174e-38
3.143187 -0.55774266 1.4512595 1.0601392e-38
3.2447069 -0.55680674 1.4752427 1.0048217e-38
3.3202269 -0.58557135 1.4918675 9.7716283e-39
3.9748743 -0.51217532 1.4845288 9.3120921e-39
4.0577722 -0.55556804 1.467041 1.0234407e-38
4.1264749 -0.54779834 1.4208348 1.0142572e-38
2.8834975 -0.47393343 1.4930598 1.087798e-38
2.9455838 -0.46941271 1.4720865 1.0877979e-38
3.0481589 -0.4644255 1.4685181 1.0786142e-38
3.1454718 -0.44874156 1.4826387 1.0417719e-38
3.2209041 -0.46108231 1.4929888 9.9567441e-39
3.6834569 -0.40305001 1.4461938 8.9433124e-39
3.7503002 -0.42443317 1.4541801 8.943311e-39
3.8539813 -0.45878723 1.455698 8.8511154e-39
3.9431255 -0.47952634 1.4477792 9.2198979e-39
4.0480886 -0.48187953 1.4302777 9.5890405e-39
4.1199684 -0.4902254 1.419744 9.405008e-39
3.4717114 -0.3133595 1.438023 8.7589197e-39
3.5503645 -0.34720659 1.4497402 9.0351465e-39
3.6346791 -0.38405761 1.4551815 9.2195378e-39
3.2846019 -0.20727119 1.4255048 9.496482e-39
3.3481245 -0.23606354 1.4517404 9.5883175e-39
3.4315541 -0.28102294 1.4616629 9.3113733e-39
3.1842306 -0.12000734 1.4350337 1.0141493e-38
3.2372124 -0.15763105 1.4656491 1.0049656e-38
3.3012037 -0.1986147 1.4859282 1.0049656e-38
2.6791222 -0.035932377 1.4594276 7.5647108e-39
2.7483864 -0.037725281 1.4865322 4.3339051e-39
3.0863957 -0.018882202 1.4148492 1.0049298e-38
3.1391017 -0.054916494 1.4584554 1.023369e-38
2.6451139 0.091426238 1.4253198 9.586884e-39
2.7647445 0.050019398 1.4765556 4.6094059e-39
2.8560686 0.090733856 1.4867202 3.3183056e-39
2.9580755 0.086760312 1.4864519 2.0279283e-39
3.0524275 0.060984932 1.4394042 7.5600206e-39
3.1169379 0.033905335 1.4753469 9.2198993e-39
2.7884791 0.10310936 1.4053036 5.8079463e-39
2.863642 0.10657533 1.4290973 4.7941559e-39
2.9715354 0.10891376 1.4452478 2.5814622e-39
3.008724 0.10470802 1.426114 2.1204841e-39
2.5761142 0.45450976 1.4029808 1.1153848e-38
2.6586411 0.47688535 1.4283825 1.1246404e-38
2.7286253 0.49375632 1.4390043 1.087798e-38
2.7724204 0.50674748 1.4619946 1.0693229e-38
2.8591034 0.53031307 1.4629841 1.0325164e-38
2.9439118 0.55975735 1.4606611 9.8641855e-39
3.0403888 0.5855543 1.4653196 9.4035675e-39
3.0882509 0.65067756 1.416263 9.0351437e-39
3.1398923 0.65040237 1.4570549 8.7585568e-39
3.2224944 0.67088121 1.4876835 7.3756252e-39
3.1583424 0.77487671 1.4485199 9.1273379e-39
3.2439976 0.76934648 1.4750781 6.9142869e-39
3.0877085 0.87772524 1.4901592 9.4961162e-39
3.137722 0.8496778 1.4472221 9.5883119e-39
2.9613473 0.98896354 1.4924569 9.4961218e-39
3.0687518 0.95543879 1.4824804 9.403922e-39
3.1258407 0.9448902 1.4293863 9.3117264e-39
2.7931483 1.0889288 1.4940027 9.2180986e-39
2.854049 1.0677317 1.4730333 9.2184588e-39
2.9474895 1.0451448 1.4695246 9.219535e-39
3.0595193 1.0510634 1.454205 9.3106516e-39
3.1069689 1.0361888 1.4205378 9.3110117e-39
2.582356 1.1988373 1.4026459 7.0990495e-39
2.6864128 1.1947515 1.4465021 7.4678306e-39
2.7539294 1.1730113 1.45067 7.7440546e-39
2.8360581 1.1416302 1.4409295 8.296864e-39
2.9526103 1.145606 1.4257928 8.3890596e-39
3.0527179 1.1348828 1.4243262 8.6663626e-39
2.5891089 1.2001092 1.4100583 7.0990495e-39
2.6556849 1.2042228 1.4198962 7.190885e-39
2.7087734 1.2013483 1.4029243 7.1912423e-39
3.6221905 -3.2153542 1.5340563 1.5583204e-38
3.4937873 -3.1046224 1.558749 1.4568336e-38
3.5591025 -3.1392341 1.5404445 1.5030032e-38
3.6080985 -3.189013 1.5317405 1.5398814e-38
3.3948641 -3.0116866 1.5988274 1.3369793e-38
3.4554875 -3.0347159 1.5621303 1.4015164e-38
3.5187201 -3.068861 1.5267582 1.4753086e-38
3.3948734 -2.9815617 1.5984045 1.3277597e-38
3.4320045 -2.9543471 1.558333 1.3646022e-38
3.3837559 -2.8385522 1.5497484 1.309285e-38
3.4107871 -2.8430114 1.5719039 1.2355285e-38
3.3834333 -2.7786531 1.5192461 1.3092847e-38
3.4557271 -2.7556961 1.556258 1.180211e-38
3.5187874 -2.7162282 1.5602121 1.1986501e-38
3.5606971 -2.6778519 1.5510625 1.2355286e-38
3.6291301 -2.6347451 1.555788 1.2816263e-38
3.6575654 -2.5534675 1.5516207 1.2724068e-38
3.6586504 -2.4481177 1.5530097 1.2447481e-38
3.6652555 -2.3577375 1.5336374 1.2263089e-38
3.7376044 -2.3439362 1.5741698 1.2263089e-38
3.8194263 -2.3098249 1.5929021 1.2170894e-38
3.6878386 -2.2767589 1.5094717 1.2263448e-38
3.751081 -2.2524147 1.5328348 1.2170894e-38
3.845171 -2.2440197 1.571666 1.2078698e-38
3.9100678 -2.2187793 1.5917844 1.1894307e-38
5.0761957 -2.202112 1.5049496 1.0972348e-38
5.1046519 -2.2034197 1.5023475 1.1064902e-38
5.5714688 -2.2052937 1.5129098 1.0142946e-38
5.6198602 -2.205272 1.5112753 9.4053808e-39
3.778007 -2.1804917 1.5091987 1.2078698e-38
3.8537827 -2.1581826 1.5303866 1.1894307e-38
3.9585288 -2.134388 1.5574906 1.1157099e-38
4.0527134 -2.1155021 1.5254521 1.0880151e-38
4.149725 -2.1134455 1.5216599 1.1433326e-38
4.2487369 -2.1217251 1.5259786 1.1157459e-38
4.3419785 -2.1244929 1.5230513 1.1065264e-38
4.4493799 -2.1272156 1.5294217 1.0972709e-38
4.5514855 -2.135427 1.5330569 1.0972709e-38
4.647891 -2.1398556 1.5257189 1.0603927e-38
4.7490296 -2.1361623 1.5295992 1.0511372e-38
4.8538175 -2.149112 1.5387239 1.0603925e-38
4.9434729 -2.1571064 1.5349452 1.0788315e-38
5.0492682 -2.1571875 1.5333354 1.0788315e-38
5.1524682 -2.158457 1.5215378 1.069612e-38
5.2475543 -2.145684 1.5207957 1.069612e-38
5.3554087 -2.1486669 1.5256147 1.0788315e-38
5.4511714 -2.1559632 1.52566 1.0603924e-38
5.554214 -2.1537507 1.53283 9.9585545e-39
5.6409616 -2.1486611 1.5162611 9.4975764e-39
3.863585 -2.0173242 1.5782408 1.2078695e-38
3.9524765 -2.050961 1.5596826 1.1525522e-38
4.0438585 -2.0641968 1.5408384 1.1710272e-38
4.1513376 -2.0578711 1.5424051 1.1341489e-38
4.2461295 -2.0569451 1.5453959 1.152588e-38
4.3509607 -2.0561893 1.54878 1.1525883e-38
4.4468226 -2.0559015 1.5450593 1.1433686e-38
4.5471182 -2.0566072 1.5372154 1.1341489e-38
4.6490107 -2.0586159 1.5428936 1.134149e-38
4.7510843 -2.051825 1.552641 1.0788317e-38
4.8478799 -2.0574198 1.5497427 1.0788317e-38
4.9506559 -2.0539334 1.5404745 1.1157096e-38
5.049046 -2.0556929 1.5341905 1.1157098e-38
5.1469984 -2.0547156 1.5297695 1.1248933e-38
5.2451773 -2.0526814 1.5305099 1.1248573e-38
5.348299 -2.0542021 1.5360034 1.1248213e-38
5.4484968 -2.047806 1.5392505 1.1432964e-38
5.5446315 -2.053206 1.5266443 1.0971986e-38
5.6360922 -2.0794094 1.5120156 1.1156377e-38
3.687453 -1.9085888 1.5784365 1.327724e-38
3.7538071 -1.9362916 1.5534254 1.2724425e-38
3.8468263 -1.9658985 1.5361663 1.217125e-38
3.9403625 -1.9720498 1.5129602 1.2355284e-38
4.0489554 -1.954492 1.5141922 1.1986858e-38
4.1494403 -1.9590478 1.5218242 1.2079054e-38
4.2503729 -1.9611193 1.5204729 1.217125e-38
4.3459001 -1.964097 1.5158893 1.2079054e-38
4.4475307 -1.965317 1.5130625 1.1986858e-38
4.547195 -1.9584429 1.5153581 1.1986858e-38
4.6493073 -1.9595971 1.5155762 1.1986858e-38
4.7515392 -1.9638704 1.5151385 1.1894663e-38
4.8502941 -1.948374 1.5112146 1.1986498e-38
4.9488177 -1.9442971 1.5163236 1.2170529e-38
5.0480614 -1.9464291 1.5212735 1.2170171e-38
5.1461201 -1.9479241 1.5257308 1.2262365e-38
5.2506232 -1.9491609 1.531248 1.2262365e-38
5.3487101 -1.9512681 1.5254725 1.2170169e-38
5.4445119 -1.9711806 1.5164934 1.1893582e-38
5.5154386 -1.9902792 1.5072896 1.15248e-38
3.4531944 -1.8033966 1.594818 1.4660176e-38
3.5631108 -1.8240131 1.5594496 1.3922611e-38
3.6446934 -1.86664 1.5441978 1.3369436e-38
3.7136712 -1.8863392 1.5116544 1.2816619e-38
4.7748556 -1.8319138 1.5049533 1.2908815e-38
4.8543015 -1.8544508 1.5115715 1.2907736e-38
4.9507327 -1.8500515 1.5229849 1.299993e-38
5.0531192 -1.8553344 1.5266181 1.3092126e-38
5.1515937 -1.8537211 1.5228204 1.3092126e-38
5.2420864 -1.8678972 1.5155197 1.2815539e-38
5.3094215 -1.8935051 1.5051637 1.2446756e-38
3.0597918 -1.7127529 1.5870198 1.6595209e-38
3.1541455 -1.7262301 1.5747286 1.6042393e-38
3.2478437 -1.7406771 1.5680494 1.5674328e-38
3.3521392 -1.7477281 1.560567 1.5397741e-38
3.4520645 -1.7575054 1.5450232 1.4476145e-38
3.5243473 -1.7883633 1.5328033 1.4015166e-38
4.7622361 -1.7633262 1.5034585 1.364602e-38
4.8536263 -1.7674559 1.5101104 1.3921888e-38
4.953793 -1.7715214 1.5126984 1.3737496e-38
5.0500889 -1.7777973 1.510712 1.3645301e-38
5.1335874 -1.7887 1.5074538 1.3460908e-38
2.881135 -1.6155062 1.547197 1.9914256e-38
2.9496474 -1.6372492 1.5533217 1.9176691e-38
3.0431166 -1.6388142 1.5610106 2.0559983e-38
3.145159 -1.6705638 1.5274241 1.650409e-38
3.2432106 -1.6785077 1.5169814 1.6320057e-38
3.3391392 -1.6889844 1.5117959 1.5121874e-38
2.8914149 -1.5935202 1.514199 1.8992298e-38
2.9453039 -1.5859628 1.5135355 2.0559625e-38
3.0389886 -1.5462503 1.5525373 2.341769e-38
2.9967437 -1.4067028 1.5432467 2.3234016e-38
3.0189996 -1.4559834 1.5502098 2.3325853e-38
2.96843 -1.3492032 1.5491998 2.0652896e-38
3.0483091 -1.3223721 1.5574741 1.7979939e-38
3.1526775 -1.3226256 1.5614396 1.7518961e-38
3.2315948 -1.310107 1.553676 1.7057262e-38
3.3900871 -1.3011161 1.5243024 1.7518959e-38
3.4522045 -1.3049072 1.5291216 1.7149819e-38
3.5510287 -1.3128054 1.5416291 1.6227504e-38
3.6361961 -1.3091514 1.5508159 1.5950915e-38
3.097306 -1.2043902 1.5870322 1.2723343e-38
3.1553953 -1.234062 1.5636172 1.3461268e-38
3.2449701 -1.2612363 1.5433154 1.4752369e-38
3.3511436 -1.2580661 1.5430729 1.4937119e-38
3.4443998 -1.250291 1.540169 1.3922967e-38
3.546886 -1.2610929 1.5356535 1.3830054e-38
3.6494515 -1.2537173 1.5309846 1.4383585e-38
3.0688868 -1.1410896 1.56833 1.2077612e-38
3.1427464 -1.1555531 1.5351813 1.253895e-38
3.2501559 -1.1485041 1.5304335 1.2539308e-38
3.3472366 -1.1633672 1.5254083 1.2631506e-38
3.4337754 -1.1894143 1.5082221 1.2446756e-38
3.5593364 -1.1563529 1.509761 1.2354919e-38
3.6243794 -1.1827117 1.511584 1.3000289e-38
2.9655449 -1.025733 1.5659555 1.1432599e-38
3.0365727 -1.062706 1.5408468 1.1709188e-38
3.1424339 -1.073674 1.5090566 1.1986134e-38
3.2251389 -1.0894073 1.5065213 1.207833e-38
3.5838542 -1.0196065 1.5019855 1.1893936e-38
3.6448908 -1.029358 1.5077655 1.1893936e-38
4.1690421 -1.0176722 1.5086409 1.3185397e-38
4.2536659 -1.0200113 1.5147351 1.22638e-38
4.3141813 -1.0064204 1.5132592 1.2171245e-38
2.8648133 -0.93453258 1.5333306 1.1063456e-38
2.9334385 -0.97259343 1.5300035 1.1248207e-38
3.5779085 -0.93207943 1.5053289 1.1432956e-38
3.6519585 -0.95178264 1.5125479 1.1525152e-38
3.7519534 -0.93368196 1.5280689 1.1433315e-38
3.8467937 -0.921574 1.5243698 1.1525152e-38
3.9461451 -0.9228304 1.5104141 1.1248566e-38
4.0529408 -0.93504453 1.5165888 1.115637e-38
4.1517119 -0.94406599 1.5318121 1.1248565e-38
4.2636504 -0.94245893 1.5373018 1.1986493e-38
4.3197627 -0.96926415 1.5234252 1.1802462e-38
2.7951989 -0.86345589 1.5214494 1.08787e-38
2.8496463 -0.84513944 1.5209149 1.0970537e-38
2.9172156 -0.81079304 1.5192264 1.0970177e-38
3.5592127 -0.85014135 1.5161973 1.0510279e-38
3.6526425 -0.85239631 1.5427799 1.106381e-38
3.7530367 -0.85307336 1.5672566 1.1156365e-38
3.853689 -0.85769308 1.5691233 1.1340756e-38
3.9462533 -0.84444982 1.551965 1.1340758e-38
4.0494194 -0.84246242 1.531095 1.0787582e-38
4.148644 -0.8481375 1.524812 1.1064531e-38
4.2462616 -0.87105513 1.5214496 1.1710263e-38
2.8888109 -0.79774302 1.566126 1.1062013e-38
2.9608815 -0.78138822 1.5534747 1.1062013e-38
3.0318575 -0.73415887 1.5427004 1.1154207e-38
3.4857898 -0.74809682 1.5061473 7.9280843e-39
3.5526257 -0.74726105 1.5280336 8.3894212e-39
3.6492889 -0.75043231 1.5586942 9.2195392e-39
3.7450912 -0.75190407 1.5885783 1.023333e-38
3.9820578 -0.75889665 1.5816016 1.1064168e-38
4.0442462 -0.75050038 1.5380447 1.1156003e-38
4.1219788 -0.78085732 1.5055691 1.1433312e-38
2.9887605 -0.60836768 1.5626694 1.1062007e-38
3.0398846 -0.65757853 1.5434343 1.1062008e-38
3.3882551 -0.60835081 1.505548 9.67979e-39
3.4596984 -0.64101768 1.5170813 9.4035661e-39
3.5542691 -0.64337587 1.5482073 8.2050271e-39
3.6509304 -0.64169931 1.5709854 7.3749133e-39
3.7463069 -0.64949405 1.5896189 7.744056e-39
3.9667189 -0.64417374 1.5659944 1.1063808e-38
4.0211687 -0.65741956 1.5210851 1.0787219e-38
2.8729658 -0.52151406 1.5333699 1.1061651e-38
2.9468474 -0.56965429 1.5401607 1.1062008e-38
3.0077 -0.59577602 1.5022088 1.1246041e-38
3.2906854 -0.51447177 1.5033473 9.5879573e-39
3.355026 -0.54507238 1.5176055 9.4028472e-39
3.4551823 -0.55309206 1.54861 8.7574778e-39
3.5528033 -0.54810423 1.5719091 8.0195568e-39
3.6430504 -0.53996158 1.5809709 7.7440518e-39
3.7341018 -0.55019534 1.5930158 5.0711114e-39
3.8868597 -0.51086843 1.5701905 1.0141853e-38
3.9386182 -0.55551589 1.546959 1.0695385e-38
