# .PCD v0.7 - Point Cloud Data file format
VERSION 0.7
FIELDS x y z rgb
SIZE 4 4 4 4
TYPE F F F F
COUNT 1 1 1 1
WIDTH 1035
HEIGHT 1
VIEWPOINT 0 0 0 1 0 0 0
POINTS 1035
DATA ascii
2.6077046 2.2714298 -0.56402558 2.7658409e-40
2.5965259 2.3369823 -0.51704752 2.7658409e-40
2.6096189 2.3373058 -0.56713283 2.7658409e-40
1.2461774 -1.0564833 -0.45242044 5.8007268e-39
1.3423829 -1.0447756 -0.44342795 5.065331e-39
1.4493333 -1.0269724 -0.45188516 5.345529e-39
1.5098493 -1.0072807 -0.47537348 6.4515165e-39
1.493534 -0.94599521 -0.41624239 6.7284621e-39
1.5155295 -0.96027213 -0.46115586 6.8202976e-39
1.476702 -0.86104923 -0.4540042 5.9908985e-39
1.5537841 -0.84520328 -0.44749326 7.0972432e-39
1.6178863 -0.81270343 -0.43599677 7.4660271e-39
1.6627307 -0.77897763 -0.45489377 7.5585829e-39
1.7089039 -0.73173743 -0.44758654 7.9277241e-39
1.6630875 -0.64391565 -0.447128 8.5734523e-39
1.7050655 -0.69110852 -0.46489847 8.1117567e-39
1.4935205 -0.51260966 -0.41198483 3.8718409e-39
1.5355632 -0.53183305 -0.4442088 6.8224598e-39
1.6150478 -0.5880599 -0.45920208 9.2202594e-39
1.4972161 -0.49343237 -0.48026386 6.545154e-39
1.5363379 -0.47497427 -0.4475193 7.098325e-39
1.665538 -0.46663991 -0.43228209 8.2979472e-39
1.7553076 -0.44763812 -0.45599699 7.3759923e-39
1.8513488 -0.41785023 -0.44344091 9.4039304e-39
1.8867295 -0.39107701 -0.45816275 1.0234051e-38
1.9217789 -0.34298781 -0.44800451 8.9429565e-39
1.9721305 -0.27026337 -0.44844967 6.4500759e-39
2.0268695 -0.22034734 -0.45535499 7.4635034e-39
2.0635445 -0.14972757 -0.45137173 8.9404327e-39
2.1033847 -0.10411406 -0.41646174 9.4021312e-39
2.0971487 -0.097875655 -0.48672989 9.4943268e-39
2.1503096 -0.073492832 -0.45151445 9.7712752e-39
2.2388647 -0.024725281 -0.44678888 1.0140058e-38
2.2885144 0.0082964692 -0.45480046 1.0140058e-38
2.3427825 0.057164744 -0.44908708 1.0048582e-38
2.3922486 0.10452387 -0.44921991 1.0048585e-38
2.4352903 0.15379184 -0.44999427 1.0048585e-38
2.4841566 0.22843017 -0.44746384 1.0048944e-38
2.5134263 0.27769706 -0.45411944 1.0048943e-38
2.5475256 0.35023734 -0.44985858 9.9571056e-39
2.5680895 0.44803461 -0.45237353 1.0142226e-38
2.6116869 0.49401367 -0.41733167 1.4385419e-38
2.593406 0.50245756 -0.48635945 1.5399938e-38
2.6634185 0.52384031 -0.45002615 1.5216274e-38
2.729986 0.57097137 -0.4461118 1.5124444e-38
2.7792692 0.62574971 -0.45330364 1.4940053e-38
2.828769 0.67478359 -0.44571838 1.4847857e-38
2.8823347 0.72777092 -0.45486689 1.4755659e-38
2.9076595 0.77688658 -0.44607642 1.4662743e-38
2.9293666 0.84867352 -0.45015079 1.4570184e-38
2.9848874 0.94699663 -0.44706747 1.4477264e-38
3.0025163 0.99143684 -0.47684148 1.4476903e-38
2.9996483 1.0009302 -0.4046005 1.4476543e-38
3.0307884 1.0396074 -0.45087066 1.4292149e-38
3.1032908 1.0956342 -0.44639876 1.4199586e-38
2.9441803 1.1820178 -0.44797674 1.2909563e-38
3.0549469 1.1511037 -0.44850895 4.5204823e-39
3.11797 1.1193373 -0.45905891 1.2539699e-38
2.8915687 1.2366678 -0.44416115 1.1708845e-38
2.9110115 1.2484543 -0.45798004 9.219563e-39
2.7762892 1.3854514 -0.40810817 1.2358542e-38
2.8677933 1.3659574 -0.44469362 2.951342e-39
2.9155157 1.3303703 -0.46521148 3.9636876e-39
2.6772656 1.4890999 -0.43664393 3.0428327e-39
2.751502 1.4561296 -0.45307264 2.9513462e-39
2.8149309 1.4147887 -0.46941623 2.3059725e-39
2.3827767 1.5539037 -0.44726193 2.7658409e-40
2.4495451 1.5143614 -0.44884998 2.950979e-39
2.5582583 1.5191557 -0.44809327 2.121224e-39
2.6353705 1.5113752 -0.45747998 2.3974549e-39
2.3833637 1.65126 -0.4498592 2.7658409e-40
2.3837068 1.7485042 -0.45148775 2.7658409e-40
2.3937376 1.8323302 -0.44669467 2.7658409e-40
2.4066167 1.8803099 -0.45500559 2.7658409e-40
2.4385204 1.9481765 -0.44912288 2.7658409e-40
2.4825404 2.0373323 -0.44251588 1.8438846e-40
2.5085557 2.0812082 -0.46520901 2.7658409e-40
2.4989047 2.1046307 -0.40014762 3.6877972e-40
2.5345371 2.1493287 -0.44919029 2.7658409e-40
2.5699522 2.2529075 -0.44899186 2.7658409e-40
2.5796936 2.3245797 -0.45882633 2.7658409e-40
1.2527267 -1.0758392 -0.35280943 5.6174188e-39
1.3625244 -1.0685911 -0.3529025 4.8812999e-39
1.4201953 -1.027541 -0.34866002 5.2533334e-39
1.4559729 -0.95123237 -0.34812444 5.8990616e-39
1.5583001 -0.93025184 -0.33900681 6.5437121e-39
1.6111642 -0.91685456 -0.31243765 6.8203018e-39
1.4806962 -0.88888204 -0.38606784 4.700161e-39
1.5736631 -0.87909156 -0.37721166 7.097246e-39
1.6418486 -0.8421998 -0.34564295 7.281996e-39
1.6908252 -0.78410619 -0.34712678 7.5585857e-39
1.707366 -0.73891455 -0.35438174 8.3883436e-39
1.656345 -0.64643741 -0.34836078 9.4032116e-39
1.7024477 -0.69656271 -0.37500042 9.0337102e-39
1.4923207 -0.51609135 -0.36463267 3.9640351e-39
1.5427932 -0.52938539 -0.34793517 8.8507608e-39
1.6107994 -0.59146124 -0.34307772 9.7727143e-39
1.5619138 -0.4780387 -0.35393843 8.3897799e-39
1.6683364 -0.46636084 -0.34960309 9.7734374e-39
1.7592068 -0.46183166 -0.35240495 6.546233e-39
1.8600119 -0.43501604 -0.34715861 9.2195392e-39
1.8964061 -0.39427969 -0.34629375 1.0234409e-38
1.924884 -0.34548205 -0.35056999 8.2053914e-39
1.9656423 -0.25224712 -0.34973121 4.6900829e-39
2.0038095 -0.20612386 -0.39718634 5.8904141e-39
1.965443 -0.17794396 -0.34134752 5.6059155e-39
2.0634592 -0.14196897 -0.35461378 9.4003305e-39
2.1119843 -0.10942616 -0.34233302 9.4024927e-39
2.1580987 -0.080061816 -0.35217541 9.7716339e-39
2.2433367 -0.031274229 -0.34819019 9.8645512e-39
2.2919407 0.0062728701 -0.34989288 9.86491e-39
2.3455315 0.055447005 -0.34974471 9.957107e-39
2.3954754 0.10429372 -0.35434112 9.9567483e-39
2.440069 0.15361391 -0.34933731 9.9567483e-39
2.4882374 0.22857566 -0.35671473 9.9567497e-39
2.5128522 0.27409226 -0.34082884 1.0049305e-38
2.5498924 0.34893137 -0.35035664 1.0049305e-38
2.5741704 0.43486053 -0.35138959 9.7734444e-39
2.6170392 0.48365358 -0.34493262 1.2080879e-38
2.6773653 0.51171201 -0.35801685 1.5216631e-38
2.738771 0.5603624 -0.3487404 1.5125164e-38
2.7859204 0.61812401 -0.35220626 1.5124446e-38
2.8320611 0.66723156 -0.34898776 1.4940054e-38
2.8872836 0.72314233 -0.34741426 1.4847856e-38
2.911654 0.77296281 -0.35265404 1.4755299e-38
2.9407325 0.84812999 -0.34986034 1.4570544e-38
2.9858353 0.95080864 -0.34888288 1.456946e-38
2.9972956 1.0096238 -0.34958211 1.4384347e-38
3.0336883 1.0544243 -0.34895849 1.4015557e-38
2.8919466 1.1952517 -0.3284491 1.0234082e-38
2.9452538 1.1788282 -0.35008451 1.3093953e-38
3.0671198 1.1442933 -0.35279033 4.981099e-39
3.1020162 1.1307154 -0.33302483 8.5752782e-39
2.8773875 1.2441249 -0.34845236 8.1124938e-39
2.9045026 1.2928761 -0.39072326 4.7930825e-39
2.7772386 1.3863176 -0.36683306 2.2130595e-39
2.8395832 1.3412756 -0.34750122 2.2126965e-39
2.9034474 1.3011311 -0.39651099 4.7008883e-39
2.3780227 1.4961982 -0.31748673 5.5317098e-40
2.4611855 1.4898434 -0.33749655 2.3974451e-39
2.5544391 1.4828215 -0.33655307 1.7517184e-39
2.6491838 1.4605361 -0.34992999 3.2268527e-39
2.7363753 1.4242227 -0.34529254 2.8580687e-39
2.358886 1.5462824 -0.34970146 2.7658409e-40
2.4290133 1.5052339 -0.36801359 2.1204995e-39
2.5585666 1.5064291 -0.38530594 5.07008e-39
2.6308765 1.5097438 -0.39079487 1.2998204e-38
2.349189 1.6489326 -0.35028073 1.8438846e-40
2.3637173 1.7493733 -0.35112217 1.8438846e-40
2.3838491 1.8453531 -0.34838206 2.7658409e-40
2.4028735 1.8919816 -0.38105464 2.7658409e-40
2.3922567 1.918306 -0.31591177 1.8438846e-40
2.4225376 1.9538774 -0.3554711 1.8438846e-40
2.4569366 2.0498986 -0.3486867 2.7658409e-40
2.4739668 2.1490619 -0.33285579 1.8438846e-40
2.5122848 2.1689706 -0.37515157 1.8438846e-40
2.4784305 2.2192583 -0.33309248 1.8438846e-40
2.5296466 2.2463009 -0.37392309 2.7658409e-40
2.550631 2.3048425 -0.3910915 2.7658409e-40
1.1778711 -1.0411663 -0.22585163 4.51216e-39
1.2513002 -1.0692451 -0.25175878 3.7745992e-39
1.3561432 -1.0583538 -0.24863386 3.684207e-39
1.4237516 -1.0220109 -0.25110948 4.9771081e-39
1.5470238 -1.0132085 -0.21902515 5.9905439e-39
1.3944578 -0.9878037 -0.23080453 5.1618595e-39
1.4311221 -0.97153825 -0.26765135 5.1611378e-39
1.554927 -0.97529989 -0.26320782 5.7139542e-39
1.636413 -0.94165879 -0.24512585 6.0830969e-39
1.6719564 -0.85098982 -0.25196445 7.0976076e-39
1.6941494 -0.76949036 -0.24833028 7.5589458e-39
1.7029164 -0.7297473 -0.25108656 8.2961507e-39
1.6530478 -0.64665639 -0.25036386 9.7727143e-39
1.4998503 -0.5143379 -0.20122181 7.3763524e-39
1.5283754 -0.52712375 -0.25222754 7.4681879e-39
1.6157359 -0.5915001 -0.25084323 1.0050022e-38
1.769587 -0.50407016 -0.22287299 7.3763538e-39
1.8231137 -0.50602925 -0.22460818 8.2983087e-39
1.5466394 -0.48299912 -0.24983513 8.2057516e-39
1.6487033 -0.48382205 -0.24893312 6.8231773e-39
1.7436697 -0.48895666 -0.26529962 8.7592869e-39
1.8640815 -0.45114374 -0.24968182 8.9433138e-39
1.8980749 -0.39657706 -0.25439051 1.0050022e-38
1.9309698 -0.34936312 -0.24949235 7.7444133e-39
1.9395739 -0.2491468 -0.24859938 5.0613836e-39
1.9573908 -0.17958818 -0.25045136 5.1517757e-39
2.0681491 -0.15414844 -0.25879544 9.4010522e-39
2.1277413 -0.12445968 -0.24473988 9.403213e-39
2.1752567 -0.087651037 -0.25404769 9.5879658e-39
2.2527084 -0.040037867 -0.24990354 9.7727171e-39
2.3037281 -0.0041837511 -0.21397741 9.5883273e-39
2.2964492 0.0029708245 -0.2826449 9.9571084e-39
2.3531075 0.045501098 -0.25122461 9.7727171e-39
2.4070022 0.092725195 -0.22892542 9.8649156e-39
2.3994069 0.10141023 -0.29594567 9.8649128e-39
2.4539104 0.14881361 -0.25089097 1.0049305e-38
2.5027807 0.19627254 -0.21233426 1.0141863e-38
2.494715 0.20939808 -0.27720165 1.0049666e-38
2.5211265 0.2539787 -0.24704832 1.0049667e-38
2.5568757 0.34979787 -0.25072569 9.9574713e-39
2.5742581 0.43156323 -0.24941187 9.5894161e-39
2.641259 0.4847995 -0.24950604 1.4017357e-38
2.6903048 0.50885445 -0.24373856 1.5401743e-38
2.7348127 0.55749905 -0.25029323 1.5309557e-38
2.7833831 0.61980969 -0.24916725 1.5217361e-38
2.8326578 0.6683147 -0.25108269 1.5032611e-38
2.8851769 0.71656978 -0.25545707 1.4940413e-38
2.9275036 0.7659784 -0.24858266 1.475602e-38
2.9791489 0.84983706 -0.25055653 1.46631e-38
2.9963541 0.93347239 -0.27086845 1.4569821e-38
3.0081432 0.95440614 -0.24855153 1.4477983e-38
2.9920595 1.0238372 -0.22128659 1.4384701e-38
3.0213966 1.0462806 -0.26036549 1.3185795e-38
2.8817096 1.1889941 -0.24483864 1.0325556e-38
2.9429154 1.164381 -0.24997282 1.2909203e-38
3.0650403 1.136191 -0.25155213 4.1513397e-39
3.1021383 1.1291114 -0.28864107 7.376735e-39
2.7889934 1.2528104 -0.20825842 2.8569813e-39
2.8422267 1.2383432 -0.25220412 6.5437303e-39
2.6822119 1.3950222 -0.20292068 2.4892834e-39
2.7732327 1.3600289 -0.20271839 3.0424558e-39
2.8471577 1.3469429 -0.26248327 3.3190553e-39
2.9144506 1.3694956 -0.24779965 1.4474394e-38
2.3615582 1.487586 -0.24314059 5.5317098e-40
2.4500899 1.4774102 -0.25016758 1.8439098e-39
2.5537155 1.470333 -0.25282899 2.0283025e-39
2.6473846 1.4589987 -0.24882238 3.5963512e-39
2.746577 1.4381011 -0.25815621 4.6090752e-39
2.8445594 1.4264512 -0.2519398 5.0696947e-39
2.9250245 1.436801 -0.24645673 1.364426e-38
2.2782104 1.5612004 -0.22872014 3.6877972e-40
2.3226023 1.5328134 -0.26275387 2.7658409e-40
2.2802167 1.6421105 -0.23527592 2.7658409e-40
2.3103864 1.6592429 -0.28146631 1.8438846e-40
2.2941077 1.7281275 -0.21043545 2.7658409e-40
2.3215435 1.7555048 -0.25445303 2.7658409e-40
2.3427835 1.8494042 -0.25049508 1.8438846e-40
2.3682384 1.9475526 -0.24522986 3.6877972e-40
2.4059863 1.9884088 -0.28862998 2.7658409e-40
2.3616931 2.0525265 -0.22557922 2.7658409e-40
2.4148638 2.0554833 -0.27546629 2.7658409e-40
2.3773963 2.1219633 -0.257451 2.7658409e-40
2.42205 2.1342032 -0.28069693 2.7658409e-40
1.3582448 -1.1047264 -0.11255679 6.0852619e-39
1.1658286 -1.0224888 -0.18651237 3.7731615e-39
1.2512081 -1.0579123 -0.18424697 3.2210709e-39
1.3465459 -1.0464979 -0.15448269 3.9629575e-39
1.4526175 -1.030033 -0.13936929 6.9139394e-39
1.5362577 -1.0121349 -0.15791409 6.729188e-39
1.063273 -0.92067695 -0.12181455 6.5408142e-39
1.1200231 -0.9698503 -0.12370487 4.7930811e-39
1.3796995 -0.99667895 -0.17895472 3.9625974e-39
1.4039272 -0.99867642 -0.19519015 1.5662313e-39
1.5780365 -0.99268812 -0.13452733 6.8213836e-39
1.6458588 -0.95036978 -0.15102383 6.7291866e-39
0.99860537 -0.8859964 -0.13787183 8.2896389e-39
1.0133996 -0.89076406 -0.12972805 8.1052434e-39
1.678583 -0.84899014 -0.15085854 7.0057735e-39
1.7029345 -0.82844365 -0.1032519 6.7295481e-39
1.6952071 -0.76516986 -0.15051289 7.7436986e-39
1.7047665 -0.74819529 -0.15029019 7.8358943e-39
1.6516581 -0.64836311 -0.1500759 9.3117404e-39
1.4996191 -0.51425862 -0.19361891 8.0217218e-39
1.5338205 -0.52991527 -0.14672481 8.2064718e-39
1.6283176 -0.56917274 -0.16091752 8.4830601e-39
1.7574549 -0.5190571 -0.15237495 7.0079315e-39
1.8385036 -0.51321143 -0.14479101 8.1139175e-39
1.5307324 -0.48774594 -0.16227783 9.7734374e-39
1.646512 -0.49733382 -0.19139549 4.4260923e-39
1.8787324 -0.4675293 -0.1601308 8.0210002e-39
1.9099797 -0.42655417 -0.13436291 9.0358696e-39
1.9466872 -0.35240892 -0.15096895 6.5458729e-39
1.9702126 -0.24999282 -0.15035437 3.7695713e-39
1.9916161 -0.19008221 -0.15964112 4.6886424e-39
2.035773 -0.17009643 -0.14604482 5.6185188e-39
2.1499267 -0.13012554 -0.14943224 9.2191832e-39
2.1874185 -0.092902906 -0.17260997 9.4039346e-39
2.2505357 -0.058108341 -0.15059949 9.311739e-39
2.3181636 -0.013948366 -0.14098731 9.5890462e-39
2.3638616 0.032859206 -0.15254536 9.865633e-39
2.417309 0.083513446 -0.14551252 1.0050026e-38
2.4697752 0.13952367 -0.15129887 1.014222e-38
2.5060146 0.18813601 -0.1457455 1.0142219e-38
2.5362387 0.2482768 -0.15078497 1.014186e-38
2.5622535 0.34978014 -0.15072802 8.6667339e-39
2.5711834 0.42927393 -0.15115172 6.6395259e-39
2.6403089 0.48131219 -0.14956735 1.5124793e-38
2.6905637 0.51442635 -0.14664382 1.5586141e-38
2.7327642 0.56361777 -0.15105112 1.5493951e-38
2.7795265 0.6201697 -0.14904322 1.5309917e-38
2.8335927 0.6687696 -0.15032259 1.5125166e-38
2.8866496 0.7100361 -0.15425755 1.503261e-38
2.9398661 0.759556 -0.14996937 1.4940413e-38
2.9920385 0.84712034 -0.16539063 1.466346e-38
3.0097377 0.85978401 -0.11794637 1.4755656e-38
2.9902294 0.98639286 -0.15516855 1.447726e-38
3.0156331 0.9456467 -0.14772812 1.457054e-38
2.9818425 1.0170385 -0.15416925 1.43847e-38
3.0424449 1.0724491 -0.14565775 1.0512834e-38
2.8810866 1.1862831 -0.15108128 1.1800683e-38
2.932945 1.1503307 -0.14846084 1.2448944e-38
3.0493777 1.1247454 -0.15271044 3.0457152e-39
2.6844068 1.2812802 -0.11763682 6.4356594e-40
2.7496943 1.2524248 -0.14834079 2.1186932e-39
2.8345203 1.2167968 -0.1516372 6.1742191e-39
2.5971925 1.3961495 -0.13901533 1.0137904e-39
2.645231 1.3556575 -0.14343868 1.105986e-39
2.7354858 1.3324549 -0.18490073 2.9502588e-39
2.8057482 1.3032237 -0.19697447 5.1607945e-39
2.2908232 1.4951041 -0.15072541 8.301194e-40
2.3414366 1.4807265 -0.14868638 3.6877972e-40
2.4472322 1.4649348 -0.15011677 1.1985404e-39
2.5577185 1.4370888 -0.14665684 9.219549e-40
2.6138325 1.4141729 -0.18448952 2.0283011e-39
2.7449241 1.4010186 -0.19798253 6.4540528e-39
2.238827 1.5388615 -0.14739345 2.7658549e-40
2.3064399 1.5049686 -0.19547144 2.7658409e-40
2.2383037 1.6487167 -0.14881548 9.2194229e-41
2.2708673 1.749205 -0.14946228 9.2194229e-41
2.3014205 1.7927704 -0.19735177 1.8438846e-40
2.2864428 1.8422035 -0.12461778 9.2194229e-41
2.314199 1.8595629 -0.17103294 3.6877972e-40
2.2958746 1.9109558 -0.10756196 0
2.3261199 1.9536961 -0.1517942 2.7658409e-40
2.290134 2.0389187 -0.13932928 3.6878112e-40
2.3203731 2.0305014 -0.16270533 2.7658409e-40
1.3772575 -1.1093328 -0.056105487 5.4398925e-39
1.3938181 -1.0845551 -0.05322776 6.0849018e-39
1.4452903 -1.0435168 -0.052427899 7.8366145e-39
1.5264474 -1.014001 -0.038924985 8.2975899e-39
1.0689206 -0.94077152 -0.08494854 4.6104934e-39
1.1246479 -0.97005177 -0.091655821 5.3484171e-39
1.5703126 -0.98452121 -0.053757209 7.6518631e-39
1.6365197 -0.93560928 -0.051616434 7.4671131e-39
0.97326761 -0.84918177 -0.029709401 4.6169702e-40
1.0081849 -0.8870526 -0.062710151 4.7030533e-39
1.6856608 -0.87398887 -0.048281156 7.4671131e-39
1.7061659 -0.82424587 -0.052622579 7.1905263e-39
1.695738 -0.70525026 -0.071662851 7.8362558e-39
1.7159653 -0.7572515 -0.048653297 7.098332e-39
1.6547337 -0.64797181 -0.051404674 8.3897883e-39
1.7034843 -0.69654733 -0.0082510998 6.9142995e-39
1.5623102 -0.53698945 -0.050703768 7.6529421e-39
1.6242987 -0.56627923 -0.039689727 7.6533023e-39
1.7670084 -0.53026456 -0.040469971 6.6395077e-39
1.8516893 -0.51857775 -0.050746545 7.099767e-39
1.5588391 -0.49729943 -0.096691176 9.1277107e-39
1.8843271 -0.49255511 -0.059418913 5.9008664e-39
1.9314533 -0.44523433 -0.049498908 8.2983073e-39
1.9601544 -0.35051399 -0.051303223 5.6235593e-39
1.9687072 -0.25046313 -0.050869346 5.1629441e-39
1.9875803 -0.18457592 -0.043495595 4.5175747e-39
2.0365131 -0.16238435 -0.055221282 4.7941601e-39
2.1510184 -0.12812674 -0.052498162 9.0351521e-39
2.1869156 -0.091611847 -0.032718956 9.4046535e-39
2.2481294 -0.057278607 -0.051645696 9.6812418e-39
2.3186328 -0.013958701 -0.057052616 9.9578301e-39
2.3651226 0.03246583 -0.04955788 1.014186e-38
2.4166512 0.083501667 -0.053404596 1.014186e-38
2.4690938 0.14312887 -0.048104469 1.0234054e-38
2.5053916 0.19050699 -0.063758671 1.0142219e-38
2.5319178 0.25014305 -0.051491711 9.9578273e-39
2.5418072 0.34931004 -0.051456448 5.5317294e-39
2.5567429 0.42243919 -0.054222189 2.8602323e-39
2.6475363 0.47220874 -0.055470455 1.4848208e-38
2.7223265 0.49262983 -0.026204843 1.6139674e-38
2.6926455 0.50804222 -0.082495064 1.5954566e-38
2.7505331 0.54924363 -0.05303001 1.5954931e-38
2.81359 0.58268267 -0.014854643 1.6047128e-38
2.7842181 0.61394566 -0.073434457 1.5586147e-38
2.8468752 0.65328699 -0.048699085 1.5586147e-38
2.9117322 0.68693864 -0.013690632 1.5586504e-38
2.8929656 0.70613396 -0.071813986 1.5309916e-38
2.954354 0.74556065 -0.054756977 1.521736e-38
3.0167062 0.78536397 -0.028951066 1.5217e-38
3.0333843 0.85158777 -0.049551569 1.494005e-38
2.9846158 0.99458075 -0.045854453 1.4661649e-38
3.0373588 0.95223212 -0.051039636 1.4754932e-38
2.9769742 1.0145553 -0.055214252 1.4569089e-38
3.046052 1.0767487 -0.048140578 7.4700194e-39
2.8840413 1.190863 -0.067456476 1.2077263e-38
2.9302931 1.1463332 -0.046783101 1.2171997e-38
3.0282526 1.1147379 -0.05655292 2.6769355e-39
2.6856163 1.2761183 -0.092696398 8.2723693e-40
2.7539535 1.2560352 -0.085463881 4.3259751e-39
2.8467159 1.2377077 -0.046369314 9.8602254e-39
2.5955853 1.3975135 -0.090477727 2.7550649e-40
2.6451342 1.3568445 -0.086009547 5.5137171e-40
2.7498443 1.3374796 -0.075016111 4.9717033e-39
2.8640935 1.3396571 -0.039419152 9.5821966e-39
2.9098954 1.3858156 -0.019635841 9.3099453e-39
2.1879513 1.4566514 -0.011353874 7.274052e-39
2.2591264 1.4511724 -0.034396715 4.1423013e-39
2.3410277 1.4609127 -0.057024058 2.0250528e-39
2.4466827 1.4586029 -0.062687173 2.6704209e-39
2.5514786 1.4484407 -0.067450456 2.0246941e-39
2.6412115 1.4522471 -0.05838462 3.8660788e-39
2.747324 1.4595523 -0.060715716 6.5379416e-39
2.8495235 1.4494972 -0.06243825 8.7491863e-39
2.9529121 1.4552637 -0.033107538 8.7531632e-39
2.1662533 1.5464461 -0.011035737 5.4323087e-39
2.2295272 1.541955 -0.061940886 1.8367099e-40
2.5921257 1.5037851 -0.011205978 7.9197928e-39
2.6570976 1.5162725 -0.022316143 7.8272328e-39
2.7466211 1.5294979 -0.02659012 7.8275958e-39
2.8523874 1.5501437 -0.03262417 8.1963783e-39
2.9542797 1.5471704 -0.03026011 8.5666069e-39
3.00772 1.5534245 -0.010481277 7.5600402e-39
2.1725605 1.6393995 -0.0096896449 3.037037e-39
2.216368 1.6496056 -0.059101865 1.8367099e-40
2.9782588 1.6025846 -0.006000807 6.9139506e-39
3.0060964 1.6037242 -0.0043177241 7.2834534e-39
2.1831682 1.7366648 -0.0049083303 1.5622796e-39
2.2408953 1.7511752 -0.052403111 1.8367099e-40
2.2624443 1.8485683 -0.05180259 2.7550649e-40
2.2865233 1.9385613 -0.047468118 2.7586522e-40
2.3043394 1.9811031 -0.071934059 9.2194229e-41
2.2897263 2.046535 -0.079287477 1.8402972e-40
2.3140988 2.0396729 -0.045222513 2.7586522e-40
2.3409941 2.1057858 -0.0071103862 6.4320721e-40
1.3835835 -1.1136153 0.024264975 4.0576839e-39
1.404128 -1.1039393 0.023166519 5.0707512e-39
1.3786325 -1.0761892 0.03358227 5.07111e-39
1.4523764 -1.0616558 0.032472301 8.2975913e-39
1.5463001 -1.0257387 0.050588094 9.4042976e-39
1.6021194 -1.0013077 0.077999398 9.5886888e-39
1.1668344 -0.90579993 0.068619423 9.3271827e-41
1.2175087 -0.90518588 0.069102339 2.7766449e-40
1.5924711 -0.99310005 0.017091207 8.7589254e-39
1.6388923 -0.94902158 0.051253717 9.2195462e-39
0.97942346 -0.85529399 0.048622124 7.3828531e-40
1.0466505 -0.87247151 0.074731641 1.8511153e-40
1.1448636 -0.89417583 0.084128186 1.0761972e-42
1.2205247 -0.895881 0.088017032 4.6133548e-40
1.6890872 -0.86219162 0.047490165 8.5738208e-39
1.7043905 -0.81656462 0.050645199 7.7440602e-39
1.6795229 -0.73264867 0.09145055 4.4250189e-39
1.7169478 -0.75430202 0.042478088 7.3756378e-39
1.6678228 -0.64507645 0.05043824 5.8086736e-39
1.726025 -0.66278189 0.064196296 3.6885371e-39
1.8081082 -0.63356346 0.098187082 1.1070636e-39
1.5874624 -0.55744421 0.010226174 5.8086722e-39
1.6427913 -0.55315316 0.037201375 3.59634e-39
1.738129 -0.53970844 0.060767129 3.1357234e-39
1.837545 -0.51711422 0.044215254 6.546596e-39
1.7839681 -0.47604388 0.086537667 2.7669409e-39
1.865137 -0.48048064 0.063260213 6.0852591e-39
1.9264779 -0.43925247 0.044540692 8.3908617e-39
1.9686182 -0.35070339 0.049075909 6.0838158e-39
1.9647272 -0.2505627 0.047552124 5.249379e-39
2.0130923 -0.21198633 0.095979273 3.1317633e-39
1.9715353 -0.17286669 0.040015914 1.0786505e-38
2.0467784 -0.14811762 0.054334894 1.0971258e-38
2.1375196 -0.12105704 0.053241435 9.4042934e-39
2.1781781 -0.08834365 0.045202773 9.5890448e-39
2.2482164 -0.046355654 0.050934684 9.8656288e-39
2.309613 -0.0076344875 0.048156049 1.005002e-38
2.3598347 0.035786122 0.049319707 1.0142216e-38
2.4110112 0.086932003 0.047847692 1.0234413e-38
2.4593647 0.15002143 0.049251251 1.014222e-38
2.4968531 0.20718397 0.071258135 9.9585503e-39
2.5186689 0.25369424 0.047047179 1.0050384e-38
2.5484703 0.34970501 0.049246866 7.376721e-39
2.56161 0.41685247 0.046820652 3.9665855e-39
2.6371336 0.45060641 0.047851775 1.0422093e-38
2.7521267 0.48145992 0.040919542 1.632334e-38
2.8230221 0.49399528 0.057077155 1.6508095e-38
2.7898917 0.52187318 0.0078166695 1.632371e-38
2.8506868 0.5524106 0.050267965 1.6415907e-38
2.9099722 0.53596109 0.093623869 1.6692852e-38
2.8786287 0.62077099 0.032817923 1.6047488e-38
2.9412937 0.66301841 0.054878756 1.6047125e-38
3.0088527 0.69233608 0.091616467 1.6047125e-38
2.9802463 0.71895677 0.025999296 1.5586145e-38
3.032886 0.76014334 0.056939811 1.5586144e-38
3.0402651 0.85084164 0.048559338 1.5216996e-38
2.9772706 0.98876297 0.044306055 1.4753843e-38
3.025898 0.9453305 0.048078969 1.4847487e-38
2.9769471 1.034324 0.056465942 1.1895771e-38
3.0273108 1.0686551 0.052714415 5.5342685e-39
2.8878176 1.1974912 0.075584844 1.0971636e-38
2.9307404 1.1464102 0.04839937 1.2263829e-38
3.011795 1.1057787 0.023287592 3.1379136e-39
2.8723757 1.2450223 0.049128886 1.0234062e-38
2.9028974 1.2014917 0.019706303 1.4013734e-38
2.8890665 1.3254849 0.046436477 9.6808887e-39
2.9147818 1.3752159 0.051203471 9.2199161e-39
2.1870263 1.4670658 0.0058885715 7.1818606e-39
2.2507391 1.456514 0.01740237 3.8678808e-39
2.3415937 1.4606937 0.025654623 2.4881946e-39
2.4427395 1.4762836 0.019928202 2.672946e-39
2.5293238 1.4917212 0.010940771 2.9491713e-39
2.9696991 1.4431572 0.048159551 8.5741922e-39
3.0066397 1.4909532 0.051427256 8.2061313e-39
2.1584067 1.5557746 0.021608565 5.1568064e-39
2.2508724 1.5495332 0.045472011 1.9346621e-39
2.3556643 1.5596495 0.072007798 4.1455607e-39
2.4534242 1.5375856 0.069324575 2.1223002e-39
2.5478156 1.5319672 0.063497953 1.3832918e-39
2.6458106 1.5362566 0.055821422 4.4246658e-39
2.7488568 1.5610726 0.045446765 5.8076002e-39
2.8421412 1.5860702 0.052945048 5.5313763e-39
2.9124789 1.5978935 0.0073650181 6.452971e-39
3.0242612 1.553883 0.049919672 7.4685691e-39
2.093612 1.6774294 0.033630956 6.1687877e-39
2.1423411 1.6476382 0.036633313 3.9597093e-39
2.2379153 1.6414551 0.08337941 3.5037885e-39
2.3258176 1.6140918 0.08948753 2.8548219e-39
2.8916955 1.6015135 0.064682744 6.0845528e-39
2.9592423 1.6111108 0.054644801 6.8228395e-39
3.0168402 1.6087326 0.042120233 6.9153953e-39
2.0912595 1.7330613 0.036318928 5.4330275e-39
2.1304078 1.7445962 0.064717479 1.658071e-39
2.2130322 1.7148185 0.09208627 4.1495194e-39
2.1389403 1.848951 0.058523547 3.0391964e-39
2.2177935 1.8716311 0.0034095687 1.4708029e-39
2.1749995 1.930693 0.053290818 4.6965471e-39
2.2353368 1.9599744 0.016591836 3.5894863e-39
2.3013666 1.9963609 1.4590262e-05 7.350427e-40
2.2740095 2.0210676 0.015420019 3.1285109e-39
2.3233533 2.0609848 0.0060003148 1.0109079e-39
2.3447974 2.1087649 0.0046261507 8.268782e-40
1.4693125 -1.0144856 0.13949591 7.2841624e-39
1.5538301 -1.0150597 0.13600636 9.8656372e-39
1.4392971 -0.98806816 0.15592423 1.0603202e-38
1.5649003 -0.98590589 0.17361695 8.9440425e-39
1.6327661 -0.94434053 0.14612117 1.0418452e-38
0.98616207 -0.86426091 0.1439375 1.568046e-39
1.0481105 -0.87272233 0.1491493 3.6950279e-40
1.1541326 -0.8864699 0.15332973 3.6949998e-40
1.211058 -0.88692272 0.13217917 8.2975646e-40
1.6768969 -0.85507572 0.15727037 7.9291689e-39
1.7044713 -0.83450651 0.11527207 5.5306462e-39
2.1482644 -0.80351889 0.16204953 5.5424998e-40
1.6662033 -0.74945289 0.1490549 5.7150346e-39
1.7498943 -0.71746576 0.11923341 6.4608547e-40
1.8473282 -0.72613835 0.12763861 5.5424998e-40
1.9460937 -0.73548126 0.13447274 5.5424998e-40
2.0445559 -0.75361216 0.14443593 5.5424998e-40
2.1238055 -0.78741747 0.15159616 5.5424998e-40
1.6334869 -0.69701791 0.13553582 3.0420872e-39
1.7733463 -0.67325491 0.10456219 6.4644561e-40
1.8448642 -0.65334415 0.11210915 7.3864124e-40
1.9305086 -0.67937136 0.13035084 6.4608547e-40
1.748713 -0.56152999 0.11840868 1.0152281e-39
1.8661312 -0.54669029 0.12325939 1.1074238e-39
1.9348112 -0.53388906 0.15140547 1.1074238e-39
2.0343146 -0.5436039 0.19158557 1.0155869e-39
1.787063 -0.43451151 0.13745376 5.9008664e-39
1.8696592 -0.43205425 0.14737043 8.5756159e-39
1.9316067 -0.42335743 0.14233096 7.376714e-39
2.0466824 -0.40663347 0.18047181 7.8380495e-39
2.1320503 -0.40706685 0.18841557 1.0326608e-38
1.987892 -0.35585785 0.11602973 8.6670885e-39
2.0401089 -0.3492012 0.14886017 1.1709902e-38
2.1241341 -0.37479407 0.18454672 1.0787944e-38
1.9905566 -0.27742642 0.12949401 5.9012294e-39
2.044143 -0.24340469 0.14807162 8.4819797e-39
2.1178195 -0.22690713 0.18311226 1.0691784e-38
2.0852487 -0.1929871 0.11706007 1.068855e-38
2.1612697 -0.15396647 0.14911349 9.5868826e-39
2.2129059 -0.10980095 0.17477788 9.4046535e-39
2.191824 -0.094750516 0.1065325 9.8656316e-39
2.2552569 -0.061816901 0.1464984 9.7734346e-39
2.3155313 -0.01593677 0.16244301 9.9578259e-39
2.3639133 0.027642446 0.14611875 1.0050022e-38
2.416924 0.077772334 0.1541529 1.0142217e-38
2.4577034 0.14849226 0.1482069 9.8663561e-39
2.5113459 0.19309789 0.18922931 1.5216972e-38
2.4957602 0.21127652 0.13313505 9.6823306e-39
2.5272188 0.25574028 0.15143311 1.0788682e-38
2.5692182 0.34700942 0.14049356 7.837346e-39
2.6219561 0.36400044 0.18563887 1.0049673e-38
2.5794706 0.41393057 0.12752295 4.6112473e-39
2.6419535 0.42145577 0.17394441 8.2997745e-39
2.744771 0.45899761 0.16124737 1.2818816e-38
2.8668194 0.48758048 0.15688062 1.6784317e-38
2.8960707 0.57840627 0.10148661 1.5955289e-38
2.9512506 0.55275071 0.11967798 1.6692852e-38
3.0426884 0.55809832 0.17087682 1.696944e-38
3.1071937 0.59527975 0.19276735 1.7061275e-38
2.9649081 0.6310882 0.11056663 1.6600297e-38
3.043885 0.66063547 0.12366834 1.6876883e-38
3.1455619 0.65734929 0.15090041 1.7891386e-38
3.2472301 0.65810353 0.1651547 1.4295402e-38
3.3554471 0.68066162 0.1783753 9.2246413e-39
3.4003263 0.68577427 0.19624248 1.0883442e-38
3.0755446 0.75044602 0.11704987 1.5862372e-38
3.1409845 0.75932568 0.1638702 1.6139318e-38
3.256355 0.72563052 0.1814287 1.5309556e-38
3.3452816 0.71101999 0.18198745 1.5586501e-38
3.4157801 0.71303976 0.19024092 1.3372366e-38
3.0679786 0.85598421 0.14625266 1.5401747e-38
3.1197591 0.81317508 0.17539297 1.5678697e-38
2.9967022 0.99562269 0.10686592 1.4845677e-38
3.0384305 0.95337003 0.15056714 1.5031518e-38
2.9756343 1.0819376 0.15220292 7.7469693e-39
3.0144355 1.0481799 0.14983666 5.9948866e-39
2.8867843 1.190627 0.15724978 1.0787966e-38
2.9209993 1.1433161 0.14796856 1.3185425e-38
2.8871045 1.2494891 0.14951214 9.8656401e-39
2.9005044 1.2984191 0.1925035 9.8656358e-39
2.8936441 1.3195944 0.13270035 9.3121033e-39
2.9200084 1.3599643 0.15752675 7.5600276e-39
2.9659257 1.445333 0.15420988 6.0852717e-39
3.0042164 1.4944857 0.12341804 8.0217429e-39
2.3790076 1.5904564 0.12463978 4.3299604e-39
2.4341085 1.5833627 0.13093944 3.7796719e-39
2.5559762 1.5829562 0.11385223 1.5676872e-39
2.6540985 1.5605929 0.12703028 3.3183168e-39
2.7515023 1.5714933 0.14922841 7.8340768e-39
2.8427672 1.590184 0.1373819 7.4664041e-39
2.9911766 1.5673379 0.16464825 7.3763833e-39
3.0090451 1.5469934 0.13846044 7.3763805e-39
2.2626927 1.6623129 0.13922444 4.6104906e-39
2.3475559 1.6351736 0.15365165 5.7125235e-39
2.4469156 1.6183293 0.17817007 4.238848e-39
2.5561779 1.626289 0.16358094 1.936118e-39
2.6398084 1.6322333 0.16465227 1.6588039e-39
2.7546062 1.6449242 0.16763604 5.1607735e-39
2.8560164 1.6403272 0.17775702 7.1898074e-39
2.9444435 1.6052984 0.14974757 7.7440826e-39
2.1581864 1.7653201 0.13709548 8.2975927e-40
2.2466667 1.7474829 0.15845813 2.9506161e-39
2.3073137 1.7362409 0.19175838 8.1135644e-39
2.7806702 1.7055002 0.18450478 3.5019934e-39
2.8580606 1.726125 0.18666321 5.345906e-39
2.1377358 1.8446783 0.15278812 2.7658689e-40
2.2363896 1.8005985 0.19783835 2.7658549e-40
2.3058221 1.8022964 0.199606 3.6841958e-40
2.1444678 1.9124402 0.15420312 1.8439126e-40
1.4517975 -1.0037421 0.25801954 1.1156377e-38
1.5335892 -1.0092301 0.25191045 1.1156017e-38
1.0665842 -0.91906291 0.25020736 1.9368285e-39
1.1580275 -0.93036616 0.25601912 1.4762077e-39
1.2068329 -0.94457477 0.29512057 1.8449888e-39
1.4596301 -0.99805242 0.23124325 1.1156017e-38
1.5776995 -0.96268028 0.25236979 1.0326977e-38
1.6157016 -0.91498727 0.23824555 1.0235139e-38
0.99917042 -0.88083756 0.201812 2.5821979e-39
1.025389 -0.88999069 0.21762657 2.1212198e-39
1.1789935 -0.88448101 0.23393409 1.4758461e-39
1.2061391 -0.88901043 0.29359606 2.2126909e-39
1.6511954 -0.85234112 0.25044429 9.4050164e-39
1.6584514 -0.7556718 0.24724033 7.3756364e-39
1.5953028 -0.68431127 0.26861683 5.0725547e-39
1.620452 -0.6919117 0.26405665 2.9516951e-39
2.0812798 -0.54843336 0.22291298 2.9513336e-39
2.1367311 -0.5653798 0.22017832 1.1996194e-39
2.2045329 -0.56357658 0.23377168 7.382797e-40
1.8850127 -0.43225399 0.21256042 1.0050386e-38
1.9427128 -0.42923662 0.25061208 9.6819635e-39
2.0307078 -0.45116127 0.26893398 8.8525601e-39
2.1611278 -0.4179076 0.21625549 9.4968505e-39
2.2482629 -0.42177433 0.24501793 1.0234414e-38
2.3168705 -0.43731508 0.27522084 1.0511001e-38
2.0671139 -0.31639364 0.20316413 1.5028579e-38
2.1667979 -0.37266335 0.21229959 1.1156366e-38
2.2303672 -0.38132051 0.23647036 1.0418442e-38
2.0636556 -0.27691764 0.20672296 1.3094635e-38
2.1498873 -0.23462579 0.22488879 1.0047858e-38
2.228658 -0.22188433 0.27218768 1.1518662e-38
2.3179131 -0.242268 0.28594455 1.1704128e-38
2.1736271 -0.17752028 0.2299061 9.6783579e-39
2.2311409 -0.13794661 0.258279 9.3124565e-39
2.2757852 -0.083547004 0.24079365 9.6812404e-39
2.3327894 -0.036630254 0.25401711 9.8656302e-39
2.3793387 0.015499394 0.24176031 9.9578245e-39
2.4342346 0.063932426 0.25307739 1.0141858e-38
2.4747624 0.13430968 0.24534588 9.8659974e-39
2.5238078 0.18138731 0.26022497 1.4387573e-38
2.565623 0.23328348 0.24553809 1.8077573e-38
2.6268759 0.281129 0.26123708 1.0329159e-38
2.5958464 0.3089973 0.20518747 9.7741647e-39
2.6465099 0.35076475 0.2514098 9.9574741e-39
2.6736462 0.41630116 0.2475646 9.4979435e-39
2.7430987 0.44651863 0.25513184 1.0975254e-38
2.8499329 0.47199497 0.25066799 1.6599919e-38
2.9318998 0.49021927 0.258068 1.75226e-38
2.979543 0.50287002 0.24114452 1.7614081e-38
3.0749128 0.5425061 0.24079695 1.7522612e-38
3.1201694 0.57514226 0.26456991 1.7522615e-38
3.1755354 0.60561764 0.24632342 1.715383e-38
3.2406266 0.62352437 0.25144583 1.6785047e-38
3.3530998 0.65589809 0.24003081 1.5309914e-38
3.4425037 0.68390638 0.25462076 1.2359654e-38
3.1886206 0.78575754 0.22307594 1.6139678e-38
3.2413738 0.75829613 0.25290623 1.6324429e-38
3.3324676 0.72047412 0.25223979 1.6970515e-38
3.4684629 0.71672463 0.25491086 1.1068551e-38
3.0853045 0.87462354 0.24765263 1.5586138e-38
3.1453247 0.82712042 0.2526156 1.5954924e-38
3.202688 0.80234718 0.25249174 1.6047482e-38
3.0526106 0.95140821 0.24922541 1.5124074e-38
2.9825532 1.0923104 0.22683299 7.3803559e-39
3.0328851 1.0525751 0.25292814 6.6409818e-39
2.8874269 1.17641 0.25305331 1.1709924e-38
2.9358981 1.1284841 0.24965811 1.3001396e-38
3.0053546 1.1029859 0.29224777 1.2728054e-38
2.891804 1.234607 0.23995967 9.9574783e-39
2.9059048 1.2764593 0.26280445 9.6812502e-39
2.9371917 1.3496689 0.24915522 9.1280736e-39
2.9622309 1.4425753 0.24982226 6.4540542e-39
2.818202 1.5990047 0.20194179 1.0414798e-38
2.9943206 1.5624714 0.25624722 7.6522527e-39
3.0036798 1.5450287 0.23999543 7.7444469e-39
2.2977242 1.6733186 0.20221984 2.6761844e-39
2.3526442 1.673178 0.21563655 5.3469822e-39
2.4381957 1.6680245 0.2192356 7.4638859e-39
2.5532286 1.6816323 0.21043356 2.3027384e-39
2.634701 1.6833214 0.21051507 2.0272403e-39
2.7254872 1.6977874 0.20250726 2.3956486e-39
2.858083 1.6306146 0.20965199 9.6772579e-39
2.9560277 1.6202427 0.24080722 7.3753071e-39
3.0312431 1.6747934 0.27672237 5.7154298e-39
2.1811709 1.7992605 0.20140219 2.7658689e-40
2.2298136 1.7981397 0.20808387 2.7658689e-40
2.3547888 1.7495714 0.24933662 5.7168437e-39
2.4396579 1.7203516 0.27152762 2.6729544e-39
2.559289 1.7415407 0.26474854 5.0686016e-39
2.6534789 1.7484723 0.25753471 4.5154251e-39
2.7457476 1.7551107 0.26208991 4.7001737e-39
2.8508482 1.7641366 0.25457042 4.7001708e-39
2.9500265 1.7662475 0.24904333 5.1611518e-39
3.044239 1.7497669 0.27159104 4.3317653e-39
3.1051078 1.7514324 0.29119721 4.6087207e-39
2.1711183 1.8472252 0.22126736 6.4536941e-40
2.2537432 1.8224976 0.23159049 4.6097955e-40
2.3419271 1.8279469 0.2610659 7.3720771e-40
2.1731226 1.9210103 0.23215802 7.3720491e-40
2.2402842 1.95345 0.26541802 1.6584451e-39
2.3609498 1.9508313 0.28236923 4.239927e-39
2.2672009 2.0243134 0.26679835 3.0417369e-39
2.3475428 2.0426672 0.29143423 4.0551742e-39
2.3398325 2.1104655 0.29453644 4.1473656e-39
4.189373 -1.5091718 0.38078919 2.7766309e-40
4.2402554 -1.5330575 0.39153627 2.7730295e-40
4.1685195 -1.4866225 0.38190925 2.7766309e-40
4.2085376 -1.4917895 0.39467415 3.6985872e-40
1.1904707 -1.0055445 0.31725451 1.7524386e-39
1.2450793 -1.0223622 0.33594179 1.9368299e-39
1.4654049 -1.01019 0.36646751 1.1340407e-38
1.538242 -1.0100725 0.34987572 1.1248213e-38
1.1730253 -0.98770493 0.30551356 1.7524372e-39
1.2287699 -0.95087421 0.32259384 2.0293801e-39
1.4394846 -0.99370992 0.32393464 1.1340407e-38
1.586862 -0.9640432 0.34451985 1.1064182e-38
1.60779 -0.91797256 0.36381945 1.1064541e-38
1.2120532 -0.89066947 0.3132475 2.4892764e-39
1.6597853 -0.86686397 0.34704921 1.0327337e-38
1.7325053 -0.82473457 0.36637515 8.5774292e-39
1.6793383 -0.73775285 0.32867727 7.563273e-39
1.7325128 -0.76935774 0.36335573 6.5484065e-39
1.5929585 -0.67649156 0.3217352 5.5532617e-40
1.6655042 -0.68270338 0.34344643 1.4762035e-39
1.7281449 -0.6584025 0.37795606 2.8587736e-39
1.8441275 -0.6229279 0.39637417 5.6246327e-39
2.0895708 -0.50346476 0.31190634 9.5904839e-39
2.1399229 -0.50871414 0.36518455 9.9592678e-39
2.2212224 -0.53598565 0.39309257 9.6826823e-39
1.9770157 -0.42067352 0.35175532 8.1146363e-39
2.0531404 -0.45057341 0.35096276 9.774515e-39
2.1193135 -0.48059413 0.37114063 1.0235493e-38
2.2612913 -0.20690528 0.33212641 9.76479e-39
2.2598884 -0.14824396 0.34904176 9.4046507e-39
2.2836225 -0.08843182 0.34723288 9.6812404e-39
2.3509109 -0.040552292 0.35036367 9.8652715e-39
2.4005606 -0.0024369638 0.39482021 9.9574685e-39
2.3946457 0.0040968754 0.32188919 9.9578273e-39
2.4408579 0.050961543 0.35162786 1.014186e-38
2.4843867 0.12141412 0.34980449 1.0050026e-38
2.5300424 0.17101072 0.35050505 1.2542931e-38
2.5758541 0.22868615 0.35067987 1.7155261e-38
2.6393478 0.28014117 0.34903184 9.0376899e-39
2.6669135 0.34897253 0.35025844 9.8652785e-39
2.6894984 0.40913105 0.33665237 9.6816145e-39
2.7388654 0.42958096 0.35560656 9.591228e-39
2.8528802 0.4634937 0.35725164 1.7337124e-38
2.9430208 0.48731193 0.35774276 1.8536394e-38
2.9968045 0.50279284 0.3394092 1.8352366e-38
3.0643415 0.53284109 0.36128449 1.8260896e-38
3.1251888 0.56988204 0.33820951 1.7983951e-38
3.1975996 0.60106432 0.34369427 1.7707004e-38
3.2463908 0.61458081 0.35174695 1.7430415e-38
3.3564725 0.6437943 0.35794035 1.6323347e-38
3.4666364 0.68168837 0.34959304 1.1252584e-38
3.1966584 0.79534578 0.32130519 1.6415905e-38
3.2312434 0.75917697 0.35173625 1.6509181e-38
3.3443239 0.72565162 0.34792194 1.6049639e-38
3.466702 0.71515119 0.35142589 1.2913544e-38
3.0978491 0.88458771 0.30473474 1.5769811e-38
3.1434236 0.84814817 0.34954241 1.6138956e-38
3.2024231 0.80477309 0.37695149 1.6416266e-38
3.0813503 0.97577286 0.33290377 1.5215548e-38
3.1220295 0.94605166 0.36016431 1.5584695e-38
3.0608373 1.0542533 0.34955385 6.8257346e-39
2.887306 1.1655105 0.34991753 1.161737e-38
2.9474595 1.1279129 0.34669423 1.2817007e-38
3.0191271 1.1089555 0.35947591 1.2911372e-38
2.8959796 1.2107483 0.32016009 9.9571224e-39
2.9164634 1.2544823 0.35286483 9.4965016e-39
2.9527154 1.3471433 0.35059783 8.6671011e-39
2.9900403 1.4349319 0.32422233 7.5607633e-39
3.0109832 1.4610585 0.36112037 8.3898051e-39
2.9982769 1.5290431 0.31289801 7.8366412e-39
3.0146201 1.5500004 0.35620987 7.8369985e-39
2.9968057 1.6079566 0.30427769 7.4675041e-39
3.0540371 1.6368463 0.34578404 6.7299391e-39
3.116549 1.6824887 0.37452078 5.6232314e-39
2.3908172 1.7668514 0.34324783 2.0286668e-39
2.425127 1.7281791 0.35289916 2.3041761e-39
2.558327 1.7620559 0.34718528 4.8845761e-39
2.6440594 1.7722552 0.35118744 5.0689646e-39
2.7495162 1.7793474 0.34979984 4.8849264e-39
2.8485439 1.7825119 0.35069448 4.7005282e-39
2.9551353 1.7890121 0.35130566 4.6998079e-39
3.0407882 1.7739526 0.34851342 4.0551658e-39
3.1325152 1.7521173 0.35498109 4.6087165e-39
2.3895087 1.8334533 0.33037198 2.3967332e-39
2.4121537 1.8652393 0.36512122 3.318342e-39
2.3910086 1.9456748 0.31217489 4.6083564e-39
2.4160712 1.9491413 0.36061797 4.7002059e-39
2.3851249 2.0528736 0.31225631 4.2395668e-39
2.4162147 2.0476389 0.3615765 4.3317751e-39
2.3763716 2.1281924 0.34391484 4.147374e-39
2.4138992 2.1218193 0.369284 4.1477384e-39
4.65727 -1.719113 0.48491761 3.6985872e-40
4.7427564 -1.7249024 0.49403009 5.5388984e-40
4.3766918 -1.6082134 0.42307171 3.6985872e-40
4.452651 -1.6284941 0.43887147 5.5388984e-40
4.5519476 -1.6507273 0.4606657 6.4608547e-40
4.6498437 -1.6601944 0.4801487 8.3083687e-40
4.7186089 -1.677713 0.49356365 7.3864124e-40
4.2710938 -1.5222038 0.40738595 3.6985872e-40
4.3435993 -1.5604925 0.41912207 4.6205435e-40
4.4398236 -1.5743926 0.44328552 8.3047813e-40
4.5281425 -1.5854726 0.463842 1.4762063e-39
1.5838497 -1.4048245 0.49534166 1.1252578e-38
4.2432289 -1.4918208 0.40610564 7.3864124e-40
1.481705 -1.3067451 0.44325307 8.1190028e-39
1.5583334 -1.3418581 0.48238829 1.088379e-38
1.4885743 -1.2843634 0.43973345 6.6438741e-39
1.5342345 -1.2437665 0.47151211 7.4696467e-39
1.5355051 -1.1505063 0.46914127 1.15248e-38
1.4851375 -1.0421784 0.4154022 1.1432606e-38
1.5528578 -1.0421956 0.45103276 1.134041e-38
1.6089836 -1.0141664 0.48000658 1.087943e-38
1.5932795 -0.99427181 0.41422084 1.0787236e-38
1.6229577 -0.94560844 0.45171133 1.0971986e-38
1.6740104 -0.87742311 0.4419781 1.0880148e-38
1.744258 -0.83132339 0.45404422 8.7592925e-39
1.7802205 -0.75632292 0.44235861 7.2841554e-39
1.8078829 -0.74254125 0.48532292 7.8387641e-39
1.772949 -0.67644864 0.42069992 6.4547549e-39
1.8537676 -0.64552867 0.45608711 9.4050066e-39
1.904416 -0.60345185 0.44862336 9.2206196e-39
1.9276505 -0.55039603 0.45316464 9.4053752e-39
2.0390522 -0.51711243 0.42226857 7.6533009e-39
2.1710091 -0.51273876 0.42338657 9.866712e-39
2.2423582 -0.5432694 0.4285976 9.4982883e-39
1.9699014 -0.45103282 0.45630172 7.4692697e-39
2.0351701 -0.42840615 0.42416885 9.9581874e-39
2.1379964 -0.45240134 0.42133451 1.0049303e-38
2.2505522 -0.41313156 0.45093998 1.0229731e-38
1.9955921 -0.39797872 0.48866749 1.0603918e-38
2.049727 -0.38568139 0.46830288 9.7730745e-39
2.1471007 -0.34587839 0.47736862 1.0509561e-38
2.2426775 -0.34387934 0.47364607 1.0226495e-38
2.3255861 -0.31675959 0.47978482 7.9093615e-39
2.1555829 -0.23939353 0.47931147 1.0603557e-38
2.2319386 -0.25035948 0.46862063 1.0786868e-38
2.1676278 -0.19772856 0.48945236 1.0327329e-38
2.2722917 -0.15146679 0.45197156 9.3124565e-39
2.2900238 -0.092628486 0.44793412 9.589042e-39
2.3552842 -0.047799852 0.45011362 9.8656288e-39
2.4028296 -0.0046705422 0.45870692 9.9574657e-39
2.44208 0.048535369 0.45047188 1.0049663e-38
2.486088 0.12066147 0.44935209 9.9574741e-39
2.5342882 0.17060502 0.45019832 1.1712813e-38
2.571985 0.23397347 0.45224521 1.1529149e-38
2.6184981 0.28352451 0.44393548 1.0234783e-38
2.6495543 0.34792173 0.45065284 1.0048947e-38
2.6939573 0.40262496 0.45199761 9.7741675e-39
2.7411606 0.42221335 0.44510472 9.7748976e-39
2.8551154 0.45627525 0.44480899 1.853602e-38
2.9543102 0.48372102 0.45274219 1.9458704e-38
3.0035591 0.49959302 0.44199955 1.9182841e-38
3.0483863 0.53224885 0.45037508 1.8998814e-38
3.1409757 0.58101875 0.44773468 1.835273e-38
3.2034464 0.59754193 0.49221158 1.7800274e-38
3.2604997 0.61353558 0.44523776 1.7338215e-38
3.3644166 0.64174306 0.44830039 1.6138592e-38
3.4460406 0.68064666 0.45182025 9.5898183e-39
3.1781108 0.77135026 0.46281168 1.6969441e-38
3.2327371 0.73967969 0.43944675 1.6877965e-38
3.3582344 0.72346735 0.44071037 1.4665627e-38
3.4391496 0.71370327 0.45192167 1.2911023e-38
3.095654 0.8714146 0.49166164 1.6507014e-38
3.1374142 0.84640574 0.44663712 1.6415542e-38
3.2011611 0.80401057 0.40365028 1.6508103e-38
3.0763445 0.99377155 0.45164064 1.5307377e-38
3.1200187 0.95036477 0.44963175 1.5769083e-38
3.0673525 1.0584427 0.45087808 6.5498666e-39
3.1029012 1.0405492 0.48898605 8.6696402e-39
2.8911548 1.1597905 0.44840273 1.1525529e-38
2.9441662 1.1305659 0.45395321 1.2540412e-38
3.0219667 1.1084328 0.43336633 1.3648576e-38
2.9267247 1.2512888 0.4495697 9.4046591e-39
2.9605877 1.3467448 0.45139229 8.8511266e-39
2.9968629 1.4042455 0.45657742 9.4043004e-39
3.0139141 1.4547611 0.44938275 8.4819923e-39
3.0398147 1.5448009 0.44887397 7.8366285e-39
3.0842602 1.6158665 0.44243079 6.7302852e-39
3.1306272 1.6660137 0.45322576 5.9923614e-39
2.3996632 1.7510182 0.4027501 2.2123448e-39
2.4204836 1.7372117 0.44830555 1.5670006e-39
2.5573423 1.7649914 0.45177701 3.9633597e-39
2.6449912 1.7796472 0.44826755 4.2392193e-39
2.753145 1.7920817 0.44916141 4.2392025e-39
2.8503511 1.787407 0.45349675 4.1469957e-39
2.9491246 1.7764468 0.44951749 4.238827e-39
3.0412722 1.7703305 0.44836473 3.6863749e-39
3.1627326 1.7600482 0.45047545 4.3324785e-39
2.4570022 1.8556364 0.45190868 4.0548841e-39
2.4487021 1.945351 0.45114413 4.2392698e-39
2.4429111 2.0498846 0.45116693 4.2392474e-39
2.3950565 2.1582537 0.40745077 4.1477426e-39
2.432795 2.1456165 0.45390195 4.2395921e-39
5.1874847 -1.9061488 0.57628465 5.5424998e-40
5.2569394 -1.9266163 0.58653343 4.6205435e-40
5.3160024 -1.9303647 0.59247905 6.4572674e-40
4.8941007 -1.8054049 0.52957118 5.5424998e-40
4.9512086 -1.8216938 0.53812897 5.5424998e-40
5.0460548 -1.8295422 0.5487479 6.4608547e-40
5.1537786 -1.8631439 0.56675738 5.5424998e-40
5.2433381 -1.8699864 0.58248949 5.5424998e-40
4.7792854 -1.7492285 0.50611943 5.5424998e-40
4.8507495 -1.7473691 0.51628202 5.5424998e-40
4.9379454 -1.7669125 0.53036511 6.4608687e-40
5.0344696 -1.7827151 0.55021942 6.4644561e-40
4.7772336 -1.6847565 0.50659794 8.3083687e-40
1.5947679 -1.4092224 0.50573862 1.1621359e-38
1.6236563 -1.4287355 0.56021237 1.1529163e-38
1.5844498 -1.3457553 0.52659005 1.106782e-38
1.607937 -1.3715844 0.56315899 1.1252215e-38
1.5443809 -1.2396375 0.55210191 8.0220974e-39
1.5624686 -1.1475549 0.55223691 1.1248573e-38
1.5843784 -1.0802498 0.53774935 1.1063823e-38
1.6189132 -1.0374917 0.5559994 1.087943e-38
1.6566854 -0.95293862 0.54965156 1.0695038e-38
1.7054418 -0.90881276 0.57967407 1.0695397e-38
1.6904898 -0.88974887 0.51724505 1.0511008e-38
1.7433143 -0.84487033 0.5514279 1.0050027e-38
1.7931668 -0.79120308 0.56411397 9.7734388e-39
1.8227051 -0.74569392 0.54980379 9.7741563e-39
1.868135 -0.6644038 0.54591697 1.0234413e-38
1.9074943 -0.61744356 0.56111175 1.0603557e-38
1.933012 -0.55015451 0.54987043 9.6812418e-39
1.977919 -0.4511064 0.548868 8.391582e-39
2.001189 -0.40129197 0.5847249 1.0695748e-38
1.9977757 -0.39853662 0.524387 1.0511719e-38
2.0468218 -0.38239685 0.55250621 9.4968463e-39
2.1368153 -0.33571747 0.55004299 1.0603195e-38
2.1401021 -0.25045729 0.55089933 1.0419526e-38
2.1655219 -0.1837218 0.55648267 9.2202622e-39
2.239042 -0.13764726 0.54371727 9.4046507e-39
2.2818949 -0.087959826 0.55812567 9.5894021e-39
2.352783 -0.041128658 0.54856682 9.7734332e-39
2.4012556 -0.0031302988 0.50648069 9.8656288e-39
2.3943412 0.0072058123 0.57230401 9.9574643e-39
2.4358065 0.052932579 0.54740483 1.0141498e-38
2.4819603 0.11914705 0.54995006 9.9578343e-39
2.5491722 0.17012744 0.55144274 1.2174156e-38
2.5672526 0.24895792 0.55136979 1.1249306e-38
2.6030152 0.29569402 0.50655788 1.0232978e-38
2.5852432 0.32729518 0.5679186 1.0599594e-38
2.6263654 0.3602806 0.53570712 1.0232978e-38
2.6947606 0.40546557 0.54197717 7.8384264e-39
2.7377477 0.41792557 0.54521537 1.0974521e-38
2.8541391 0.44676182 0.54591656 1.9550165e-38
2.9578769 0.47477546 0.54909772 2.0196619e-38
3.0136096 0.49390915 0.56135058 2.0104786e-38
3.0545464 0.52779907 0.54773849 1.9644534e-38
3.1387763 0.57161307 0.55017984 1.899953e-38
3.2210171 0.59477168 0.55446452 1.816977e-38
3.2738585 0.6106832 0.54083002 1.6971229e-38
3.3533797 0.63158685 0.55668592 1.5680489e-38
3.4346454 0.67745531 0.55146313 1.005584e-38
3.1743145 0.76869524 0.54327291 1.7338584e-38
3.2337461 0.7301209 0.55554771 1.7707725e-38
3.360728 0.72728091 0.55537146 1.6601736e-38
3.4238994 0.71575397 0.54523373 1.2822074e-38
3.0914369 0.87330234 0.52730364 1.6599213e-38
3.1324956 0.83811885 0.55723846 1.6876523e-38
3.0800445 0.96674246 0.5449177 1.5492131e-38
3.1068282 0.94549954 0.55266428 1.6137507e-38
2.9881823 1.086836 0.57144809 1.4293582e-38
3.0648749 1.0579594 0.54846156 6.2732811e-39
3.1027148 1.0381871 0.52855712 8.300499e-39
2.8936567 1.1496176 0.54342794 1.1341134e-38
2.931607 1.1307395 0.55109793 1.2263461e-38
2.9483423 1.2530794 0.55031228 9.1280652e-39
2.9702089 1.3480046 0.55119205 8.6670899e-39
2.9965513 1.4224012 0.55874419 8.1135601e-39
3.0072603 1.4663506 0.54475307 7.9291717e-39
3.049823 1.5454696 0.54776573 7.2838037e-39
3.1025426 1.5992304 0.57920712 6.4540416e-39
2.3791203 1.6861738 0.57817012 8.0185619e-39
2.4412382 1.6921533 0.57565558 7.556565e-39
2.5040944 1.6979405 0.58938092 9.1223857e-39
2.7456751 1.694356 0.58583528 5.091412e-39
3.094697 1.6054547 0.51925969 6.5462442e-39
3.1469517 1.6528276 0.55054861 5.9005147e-39
2.184236 1.7900547 0.59844422 7.5561516e-39
2.218322 1.793839 0.59755683 6.0799678e-39
2.382333 1.7506421 0.56379932 5.7127323e-39
2.4337153 1.7319881 0.52714771 5.069895e-39
2.5505908 1.7389679 0.54876369 4.4446455e-39
2.6523998 1.7658215 0.55404115 3.7924013e-39
2.7427278 1.7653228 0.55707198 4.3376423e-39
2.8505106 1.7773112 0.5440439 3.9622555e-39
2.9437788 1.7619318 0.54800707 4.1462698e-39
3.0492113 1.7654203 0.55245751 3.6856504e-39
3.1603835 1.7606037 0.54384452 3.871129e-39
3.2103493 1.7394438 0.56660569 4.5168586e-39
2.0655746 1.8305987 0.597238 6.177274e-39
2.1677094 1.8623762 0.59218651 4.3334062e-39
2.2472258 1.8581414 0.57912815 4.7911726e-39
2.3606038 1.8473023 0.56595546 5.5255104e-39
2.4403298 1.8532149 0.51883835 4.2383113e-39
2.6955831 1.8016744 0.53667378 4.6038512e-39
2.7241929 1.8030217 0.54591835 3.2352534e-39
2.1693504 1.9208277 0.58203912 4.1425592e-39
2.2421124 1.9412432 0.56160372 5.1585384e-39
2.3535903 1.9416016 0.55255288 4.5138584e-39
2.4458456 1.9515798 0.52570039 3.68545e-39
