# .PCD v0.7 - Point Cloud Data file format
VERSION 0.7
FIELDS x y z rgb
SIZE 4 4 4 4
TYPE F F F F
COUNT 1 1 1 1
WIDTH 1048
HEIGHT 1
VIEWPOINT 0 0 0 1 0 0 0
POINTS 1048
DATA ascii
1.4851265 -0.91830039 0.26372933 5.4413386e-39
1.5308443 -0.96849543 0.2456892 6.5466016e-39
1.6349115 -0.9739334 0.29278898 8.3083827e-40
2.1937807 -0.90316325 0.2648156 6.2707294e-39
2.2149076 -0.91292727 0.27002627 5.9019468e-39
1.4629093 -0.89844096 0.24904643 5.6253698e-39
1.977572 -0.80653352 0.2189969 8.1146391e-39
2.0611515 -0.8209812 0.25279757 9.6823222e-39
2.1400259 -0.85180801 0.27883163 9.5901266e-39
2.2567701 -0.81401682 0.20967017 9.4039374e-39
2.3236287 -0.82169694 0.2090123 9.9578301e-39
1.8880663 -0.74625003 0.20380555 1.0051103e-38
1.9520153 -0.75648874 0.22103488 9.7741577e-39
2.0533538 -0.77604908 0.25490224 9.3131795e-39
2.1332445 -0.78823274 0.25588828 8.3905044e-39
2.1957672 -0.61835319 0.20380615 1.0234413e-38
2.2543168 -0.6133368 0.22351122 1.0877977e-38
2.3120141 -0.60564709 0.25330779 1.0689982e-38
2.1969483 -0.58065414 0.20285904 1.0970174e-38
2.2639019 -0.55574346 0.22670673 1.0229728e-38
2.3414075 -0.53885448 0.262499 9.5854448e-39
2.421798 -0.5165965 0.28698769 9.2188245e-39
2.2909555 -0.4966141 0.20493677 9.2191804e-39
2.3634408 -0.48128796 0.22179249 9.4039332e-39
2.4526854 -0.45330384 0.24740213 9.6805215e-39
2.5194044 -0.42510244 0.27526334 9.8649128e-39
2.4822416 -0.35006401 0.22106592 1.0049664e-38
2.5171618 -0.34797353 0.27052602 1.0141502e-38
2.4937677 -0.28150082 0.208858 1.0049307e-38
2.5401697 -0.24933399 0.25452965 1.1248944e-38
2.6028757 -0.20570926 0.22958584 1.7246014e-38
2.5930178 -0.17393516 0.28068438 1.7338576e-38
2.6367056 -0.1445716 0.24233277 1.4018077e-38
2.6916485 -0.078697726 0.2364891 1.0141507e-38
2.7238605 -0.035830542 0.25762084 1.0049674e-38
2.804477 -0.0028470056 0.29132643 1.1250028e-38
2.8427124 0.0020785867 0.24212223 1.2172352e-38
2.9563744 0.010118295 0.25128275 1.4108829e-38
3.0533192 0.025044693 0.25029552 1.6507369e-38
3.1545544 0.057426635 0.25199309 1.8260537e-38
3.2260771 0.08902806 0.24691245 1.7707005e-38
3.2954495 0.10124745 0.21634281 1.678469e-38
3.3532195 0.15682556 0.23483056 1.5955648e-38
3.4653497 0.15200856 0.25161764 1.3557843e-38
3.5034869 0.15196128 0.28851327 1.2173108e-38
3.269944 0.27561113 0.23981319 1.6692499e-38
3.3299611 0.23021047 0.25526193 1.6692857e-38
3.4217312 0.2048234 0.29078442 1.5863453e-38
3.2295666 0.35022107 0.24995391 1.6231157e-38
3.2303047 0.44876868 0.25048488 1.5768732e-38
3.2627349 0.55719829 0.25251943 8.853684e-39
3.3022013 0.54715002 0.22630626 1.2448952e-38
3.0781634 0.66963589 0.24969462 1.2724451e-38
3.1510496 0.6281963 0.24608712 1.2448956e-38
3.2053919 0.60879433 0.26355323 7.9317319e-39
3.0814528 0.71297693 0.24863464 1.1525537e-38
3.1521189 0.76761502 0.2485487 9.8652883e-39
3.1875238 0.84201634 0.23687603 9.4043074e-39
3.2062407 0.86956334 0.27462348 9.2206308e-39
3.1955779 0.90812397 0.21237917 8.5752698e-39
3.2335062 0.95270944 0.25172916 8.5752698e-39
3.2686446 1.0454798 0.24927714 7.9295472e-39
3.3041825 1.0968282 0.27793258 7.1919808e-39
3.2978981 1.100451 0.21888015 7.2841848e-39
3.3533118 1.1490148 0.248594 6.3615069e-39
3.4024332 1.1953683 0.27830321 5.2547964e-39
3.3865633 1.2768905 0.25340533 3.8711347e-39
3.4111943 1.2354249 0.24785705 4.6090682e-39
2.5899642 1.3959314 0.27348867 4.145677e-39
2.659961 1.376587 0.25141522 3.0410769e-39
2.7351632 1.3411385 0.2494272 2.1194429e-39
2.8537276 1.3523024 0.25111318 4.2395809e-39
2.9499686 1.3557806 0.25124839 4.6076389e-39
3.0490665 1.3559891 0.24933599 4.5154321e-39
3.1491508 1.3542631 0.25202861 4.5147062e-39
3.2507749 1.3497633 0.25176358 4.4228637e-39
3.3495479 1.3284286 0.24836203 4.1469957e-39
2.091644 1.4871778 0.29732355 3.1322132e-39
2.1534624 1.475903 0.27357528 3.4091448e-39
2.2489941 1.4728277 0.25521091 3.8701159e-39
2.3502874 1.4757054 0.25646117 3.8701229e-39
2.4487884 1.4689925 0.2601057 3.8701355e-39
2.5581083 1.446941 0.24910894 4.4229548e-39
2.6260767 1.4208031 0.21027288 3.7786265e-39
2.0747461 1.5517416 0.28721842 3.2247451e-39
2.1466699 1.545796 0.23963629 4.3314332e-39
2.2381418 1.5092221 0.20890266 4.4236246e-39
2.3544316 1.5045823 0.20594072 4.5158216e-39
2.4536057 1.5090266 0.21058141 4.4232715e-39
2.5336266 1.5045205 0.20570731 4.699864e-39
2.0789921 1.6472533 0.28644642 3.7779049e-39
2.1421049 1.6495311 0.23674491 4.5158146e-39
2.0903568 1.7390996 0.29272288 3.8711683e-39
2.1457758 1.7531787 0.24286923 4.4239707e-39
2.0983875 1.8211112 0.29943711 4.2395851e-39
2.1477492 1.851521 0.25111163 4.3321282e-39
2.165385 1.9259505 0.23743671 4.3321226e-39
4.4353309 -2.4253514 0.39247742 5.5424998e-40
4.3547258 -2.3666332 0.38953492 8.3083687e-40
1.5906405 -1.4081185 0.34274212 1.087943e-38
1.6117446 -1.4207026 0.38060889 1.0971626e-38
1.5768489 -1.3435558 0.34104991 1.0787236e-38
1.6033421 -1.3554208 0.3909899 1.0787235e-38
1.5827338 -1.2629153 0.33711985 1.0971627e-38
1.6111532 -1.2329289 0.37294385 1.0971626e-38
1.5633276 -1.1419377 0.31897378 8.2990346e-39
1.628642 -1.1515599 0.37103686 1.0787598e-38
1.5676346 -1.0625317 0.31329796 9.5901336e-39
1.6385496 -1.0540392 0.36256197 6.4562178e-39
1.494004 -0.90999711 0.30960196 2.6754697e-39
1.5668677 -0.94307464 0.32876679 3.5052276e-39
1.637143 -0.93841958 0.35754964 3.3193916e-39
1.7359476 -0.90321374 0.38426426 4.70124e-39
2.2726939 -0.90649056 0.36498812 9.9589105e-39
1.7887384 -0.89333588 0.38951066 6.822457e-39
1.8458668 -0.86119533 0.3908062 9.035871e-39
1.9344742 -0.83383584 0.39420795 9.0358752e-39
2.1585979 -0.83201522 0.33485985 1.0050746e-38
2.2386754 -0.87604183 0.35654494 1.0142942e-38
1.9622273 -0.73958331 0.37937802 7.6529421e-39
2.0475025 -0.75536782 0.35168737 8.9436781e-39
2.1463802 -0.77243215 0.35237849 9.0351521e-39
2.2344706 -0.7833516 0.3773846 9.8631079e-39
2.3766022 -0.5721736 0.3074246 9.9527854e-39
2.455373 -0.53848398 0.34757432 9.2191832e-39
2.5144784 -0.58199579 0.38781703 9.219542e-39
2.471483 -0.48065194 0.34692112 9.4964904e-39
2.543936 -0.43512645 0.35200074 9.6812404e-39
2.5504045 -0.34941989 0.35132974 1.0049663e-38
2.5587046 -0.24870399 0.34925243 1.0880161e-38
2.6025357 -0.20413704 0.39549994 1.2726618e-38
2.587455 -0.17565772 0.33250618 1.4940765e-38
2.6502635 -0.13785636 0.35844228 1.1158201e-38
2.6935897 -0.095225245 0.35417515 1.0232979e-38
2.7246332 -0.04859465 0.34901965 1.0141145e-38
2.8274372 -0.0042633554 0.35728136 1.1619169e-38
2.8725982 0.0012280296 0.3482486 1.2726247e-38
2.9549301 0.0085783442 0.34777787 1.4570884e-38
3.0501473 0.021772427 0.35006034 1.6877225e-38
3.1485496 0.055920228 0.34998903 1.890662e-38
3.2370703 0.09007588 0.34954366 1.8076866e-38
3.3582032 0.105617 0.34887707 1.6509183e-38
3.4657452 0.12878306 0.34516856 1.4111017e-38
3.5216491 0.16741808 0.3515262 1.2542971e-38
3.3637736 0.27046025 0.33887857 1.7153837e-38
3.4366016 0.23235421 0.36116263 1.6785413e-38
3.5168633 0.20466131 0.375723 1.4941499e-38
3.2814078 0.37262055 0.33940446 1.6507743e-38
3.3305137 0.33215922 0.36198959 1.6876888e-38
3.269932 0.44940367 0.3506929 1.5954202e-38
3.2717717 0.55280077 0.34987313 9.3143034e-39
3.3011904 0.51576191 0.39530873 1.5491776e-38
3.0667319 0.66855365 0.34991837 1.263225e-38
3.1366057 0.63186336 0.3486402 1.3740052e-38
3.2310021 0.61580139 0.35224158 8.8540483e-39
3.0750954 0.71157211 0.34880698 1.1341139e-38
3.1529851 0.76532865 0.35104179 9.681246e-39
3.192796 0.82952213 0.36080426 9.220265e-39
3.207835 0.86754394 0.33883452 9.1280722e-39
3.238735 0.94937867 0.35008317 8.4830643e-39
3.2799301 1.0373594 0.34556347 7.7455049e-39
3.3101914 1.0857229 0.36015561 7.0997754e-39
3.3656614 1.1393828 0.34981796 6.2692972e-39
3.4073174 1.1879015 0.35524291 5.1625895e-39
3.0805042 1.2916446 0.38952994 7.4702282e-39
3.1314123 1.2866811 0.38897246 6.7293996e-39
3.3698444 1.267958 0.35462791 3.6863734e-39
3.4127929 1.2227767 0.34366795 4.424663e-39
2.1815488 1.3837709 0.37319994 4.7911305e-39
2.2475648 1.3749955 0.35868049 5.2496284e-39
2.3415751 1.3783029 0.36358407 5.5258593e-39
2.424361 1.3919389 0.38167048 5.4361664e-39
2.5892985 1.3962952 0.30526066 4.3290412e-39
2.6636081 1.3830919 0.34392175 5.3418184e-39
2.7379768 1.3635753 0.35030761 4.9740925e-39
2.8537741 1.3761617 0.35250828 4.0682945e-39
2.9544992 1.3755654 0.35752255 3.525552e-39
3.0487487 1.3464283 0.35870242 4.7928836e-39
3.1486273 1.3414769 0.34179133 4.1459531e-39
3.2530255 1.3328059 0.34573376 4.0544469e-39
3.3298435 1.3150202 0.34343925 3.9626016e-39
1.9901597 1.488965 0.35078651 4.234724e-39
2.0530002 1.4794474 0.34758255 3.9595566e-39
2.1465423 1.4439654 0.35003072 4.5113193e-39
2.2407744 1.4238782 0.31407472 4.1439436e-39
2.3576894 1.4357986 0.31513345 3.9609803e-39
2.4503314 1.4256694 0.33404157 4.9719401e-39
2.5523322 1.4280696 0.34212151 5.2478179e-39
2.6246927 1.4161483 0.36285257 6.1672995e-39
1.990209 1.5287514 0.3442781 3.9591894e-39
2.0184352 1.552781 0.34113494 3.3159178e-39
1.99532 1.685503 0.35751832 3.1318839e-39
2.0324049 1.6547136 0.34853896 3.4081218e-39
1.9947666 1.7262591 0.36654627 3.1326055e-39
2.0338871 1.7491813 0.34309191 3.1325691e-39
2.060921 1.8263845 0.33017656 3.3176456e-39
2.1025991 1.8645573 0.30048263 4.332138e-39
4.9466267 -2.723953 0.48173279 5.5424998e-40
5.0416365 -2.779922 0.49462181 5.5424998e-40
4.7713475 -2.618191 0.45439366 5.5424998e-40
4.8521752 -2.6573277 0.47257221 6.4644561e-40
4.9268165 -2.6988325 0.48335707 6.4644561e-40
4.5859075 -2.5153978 0.42013782 4.6205435e-40
4.6551809 -2.538815 0.44479507 6.4644561e-40
4.7396159 -2.5874269 0.45722967 6.4644561e-40
4.4583697 -2.4257057 0.41166291 7.3864124e-40
4.5404239 -2.4707749 0.42714199 6.4644561e-40
4.3827028 -2.3691616 0.40468448 1.3840106e-39
4.4027743 -2.3863635 0.4065378 1.1074238e-39
1.6317518 -1.4319695 0.45246711 1.0879433e-38
1.6139985 -1.3485059 0.44964373 1.0787236e-38
1.6350418 -1.2537781 0.45144162 1.0879432e-38
1.6591477 -1.1511745 0.44824713 1.0695401e-38
1.6656755 -1.05024 0.4526884 7.6515044e-39
1.7048 -1.0094793 0.49566886 1.0050024e-38
1.6806082 -0.97012252 0.43559036 7.5607423e-39
1.7459291 -0.93305463 0.45895031 9.865626e-39
1.8027616 -0.9016974 0.49531639 1.0787591e-38
2.2883985 -0.90227687 0.41865835 1.0050746e-38
1.783398 -0.89165717 0.43077326 8.9433124e-39
1.8446318 -0.84825498 0.44993162 9.7730787e-39
1.9479196 -0.81939101 0.41297352 8.0217247e-39
2.0368412 -0.83915102 0.40545961 8.0217261e-39
2.1551051 -0.82816786 0.41243991 9.9581916e-39
2.2553017 -0.87730807 0.41564548 1.0142942e-38
1.8865622 -0.78513885 0.46186706 8.1139189e-39
1.9219968 -0.73694605 0.44357902 7.7451392e-39
2.0402296 -0.72152418 0.41076365 9.6808817e-39
2.1568198 -0.72999918 0.41911459 9.2148616e-39
2.2524862 -0.75807434 0.42241278 1.0133935e-38
2.3175211 -0.77299678 0.43353951 1.1056249e-38
1.9697213 -0.69226259 0.46743685 9.6812432e-39
2.045728 -0.68004322 0.45530337 9.773436e-39
2.1423891 -0.64128435 0.46062392 1.0603197e-38
2.2210286 -0.65652221 0.43626866 1.0508121e-38
2.1518276 -0.55443996 0.46166667 1.0326251e-38
2.2531028 -0.53167307 0.465581 9.5883259e-39
2.347193 -0.52828228 0.45557323 9.311739e-39
2.449281 -0.53639287 0.42336386 9.2195448e-39
2.5092192 -0.58283448 0.40634856 9.1273491e-39
2.2969799 -0.4993968 0.49873495 9.2195448e-39
2.3617342 -0.47747076 0.48217934 9.4042948e-39
2.4509161 -0.45426896 0.45306802 9.6805201e-39
2.5314279 -0.42776692 0.42796919 9.7734332e-39
2.4935977 -0.38790378 0.4923951 9.9574657e-39
2.5351751 -0.34869906 0.44954571 1.0049663e-38
2.5561039 -0.25745478 0.45017827 1.0418455e-38
2.6120222 -0.20956257 0.45296517 1.2726977e-38
2.6438591 -0.15070826 0.45103416 1.1895766e-38
2.6862664 -0.074328996 0.46458972 1.0599962e-38
2.7250736 -0.039025065 0.43856633 1.0324818e-38
2.8428941 -0.0050043245 0.44989944 1.2171625e-38
2.8900676 0.0012354981 0.45967028 1.4015909e-38
2.955935 0.0075292746 0.45315391 1.5584315e-38
3.058032 0.020478835 0.45362252 1.7983205e-38
3.1489227 0.05472314 0.45148689 1.9644894e-38
3.243772 0.090487346 0.44847524 1.8630033e-38
3.3543594 0.10428298 0.45005721 1.7062354e-38
3.453455 0.1191875 0.44983432 1.4665271e-38
3.5514708 0.16524877 0.45060593 1.2360382e-38
3.3797312 0.28430909 0.45452908 1.7615532e-38
3.4368401 0.24261403 0.4484382 1.7615175e-38
3.5329392 0.20793813 0.45049518 1.5679424e-38
3.2853053 0.37613583 0.45654061 1.6969081e-38
3.3321223 0.32926854 0.44435999 1.724603e-38
3.2806771 0.44257724 0.45057976 1.6323346e-38
3.3053434 0.49275839 0.45228502 1.5953839e-38
3.2696705 0.57071227 0.44882664 6.1796506e-39
3.3133051 0.52370453 0.45370567 1.456982e-38
3.0681858 0.66947061 0.44939515 1.2632246e-38
3.1440597 0.63177133 0.45184648 1.3832607e-38
3.2364597 0.6135419 0.44929889 8.9466041e-39
3.0729067 0.71730465 0.45777059 1.0419533e-38
3.1393087 0.76903057 0.44885615 9.3128166e-39
3.1819854 0.83503228 0.4547525 8.9436725e-39
3.2099805 0.88098836 0.4414342 8.7592813e-39
3.2426839 0.94887239 0.45072153 8.2064704e-39
3.2830436 1.0235635 0.44891042 7.6529407e-39
3.3181739 1.0749805 0.45254257 7.0072126e-39
3.3764021 1.1538596 0.45294651 5.5313636e-39
3.4017024 1.1913615 0.40963355 4.7938e-39
3.0688899 1.294059 0.41307324 6.0994683e-39
3.1598747 1.2887901 0.44946936 6.9096276e-39
3.2477474 1.2912736 0.46207771 5.6195922e-39
3.3530571 1.2514825 0.44955596 3.7778446e-39
3.4006646 1.2050618 0.40394959 4.3321044e-39
2.1949828 1.3958313 0.40217453 8.0153151e-39
2.2545683 1.3808982 0.40869007 8.6613361e-39
2.347151 1.3775969 0.41530392 8.5702167e-39
2.4505849 1.3899211 0.41676629 7.8319748e-39
2.5104151 1.3982326 0.42455566 8.2003608e-39
2.6733384 1.3870683 0.42283082 7.0047897e-39
2.7486954 1.3782201 0.441383 7.1898508e-39
2.8500507 1.3740711 0.43946254 7.3728464e-39
2.9502048 1.3655853 0.44145852 7.6498214e-39
3.0425386 1.3389916 0.45128822 7.9277998e-39
3.1287782 1.3153211 0.47392163 8.2003482e-39
3.2722764 1.3051255 0.41657519 4.5147034e-39
3.3124924 1.3050249 0.41317701 4.146274e-39
2.074055 1.4868553 0.40594265 6.9184571e-39
2.160953 1.4714115 0.40972877 7.0959905e-39
2.2486835 1.4491884 0.42707923 9.3067013e-39
2.3457985 1.4453968 0.44836864 7.8329936e-39
2.4552977 1.443381 0.45616558 6.359318e-39
2.549345 1.4394475 0.44995883 5.8051157e-39
2.6472793 1.434248 0.4454118 6.8199963e-39
2.7283258 1.4389489 0.48317423 6.9139253e-39
2.850868 1.405254 0.49566102 5.0754316e-39
2.9311948 1.4033573 0.49432397 6.3647285e-39
2.0545166 1.5575359 0.41659614 5.988917e-39
2.1525052 1.5533166 0.44278416 9.584363e-39
2.2525342 1.5479153 0.45609319 1.0138586e-38
2.3411567 1.5511168 0.47394761 8.2950451e-39
2.4446981 1.5396016 0.49039429 3.318307e-39
2.5203683 1.5076048 0.49766198 2.2130454e-39
2.6098089 1.5014799 0.49888295 1.9368131e-39
2.0636971 1.6660529 0.44504914 6.912929e-39
2.1528924 1.6477947 0.47307146 1.0415895e-38
2.2353091 1.6329006 0.49048686 7.6511204e-39
2.3286893 1.6137935 0.49323693 7.9266255e-39
2.4217429 1.6011763 0.4996227 4.4246461e-39
2.0550046 1.7466359 0.44886851 5.9902959e-39
2.1520007 1.7012401 0.49900576 9.12481e-39
2.064882 1.827618 0.45119584 4.5162658e-39
5.4684901 -3.0192308 0.57989395 5.5424998e-40
5.5292196 -3.0299838 0.5971511 6.4644561e-40
5.2793493 -2.9109783 0.53317583 5.5424998e-40
5.3569012 -2.9364347 0.56113446 5.5424998e-40
5.4241681 -2.9733326 0.57017761 6.4644561e-40
5.5291529 -2.9968758 0.59828764 7.3864124e-40
5.1481676 -2.8311963 0.51807564 6.4644561e-40
5.2439208 -2.8649406 0.54411495 6.4644561e-40
4.9714394 -2.7017431 0.50567353 7.3864124e-40
5.0590401 -2.7529764 0.51703495 6.4644561e-40
5.1249952 -2.7740965 0.53237438 8.3083687e-40
4.9721494 -2.6877995 0.50932401 9.230325e-40
1.6467701 -1.4404883 0.55085212 1.0879435e-38
1.6212451 -1.3482323 0.54986298 1.0695043e-38
1.6523598 -1.2558069 0.55123377 1.0602846e-38
1.6843956 -1.1588143 0.54608428 1.0418452e-38
1.7045268 -1.119766 0.58208239 1.0326255e-38
1.679768 -1.0674591 0.51546067 7.6529449e-39
1.7208951 -1.0444845 0.55890769 1.0326614e-38
1.7593452 -0.96124887 0.54533446 9.6808831e-39
1.8158857 -0.91784722 0.56299883 1.0511004e-38
1.8558995 -0.85205805 0.54869801 1.0050027e-38
1.8891855 -0.78932458 0.5507676 9.2202622e-39
1.9298062 -0.74122655 0.55172682 9.1280708e-39
1.9777515 -0.68636781 0.54846424 9.5890462e-39
2.0638363 -0.65522349 0.5565334 1.014222e-38
2.1155512 -0.62530869 0.53020132 1.0603198e-38
2.1251993 -0.54658842 0.55046105 1.0234416e-38
2.2357018 -0.50624031 0.5194605 9.0355122e-39
2.1856375 -0.49602613 0.58097845 9.1280666e-39
2.2584763 -0.47491059 0.55845237 9.3120977e-39
2.3468845 -0.44027659 0.54854578 9.588686e-39
2.4295332 -0.41545889 0.53209972 9.773436e-39
2.3969398 -0.39837012 0.59824479 9.6812432e-39
2.4621036 -0.35782859 0.55633909 9.9574685e-39
2.5152175 -0.31825346 0.52380514 1.0233335e-38
2.493978 -0.29210615 0.59007484 1.0048945e-38
2.5401242 -0.2573567 0.5496127 1.0325897e-38
2.6138296 -0.21006811 0.55018938 1.1528431e-38
2.6395364 -0.15103874 0.54984009 1.1250396e-38
2.6706862 -0.057474282 0.55068755 1.0967665e-38
2.7388794 -0.010207384 0.54380774 1.2353493e-38
2.8265097 -0.0043451851 0.52097946 1.3554197e-38
2.7789321 0.0029989956 0.5820986 1.6965812e-38
2.8545604 0.0070338608 0.55726242 1.7427866e-38
2.9492941 0.016401049 0.54715633 1.8996637e-38
3.0709238 0.043003049 0.55997151 2.0843419e-38
3.1272895 0.07099203 0.5431996 2.0290974e-38
3.238049 0.093407102 0.53755856 1.8722585e-38
3.1553199 0.10454116 0.59402984 1.9830356e-38
3.2562256 0.10514165 0.58841807 1.798574e-38
3.3487675 0.10608707 0.549743 1.6878319e-38
3.4550421 0.12090143 0.54868668 1.4665265e-38
3.5558693 0.16719809 0.55082977 1.3651116e-38
3.3711026 0.27518192 0.55612183 1.82609e-38
3.4380248 0.22872752 0.54860759 1.8076511e-38
3.5299397 0.20558108 0.52803177 1.6140401e-38
3.2731459 0.36602086 0.55160517 1.7338225e-38
3.320302 0.31796822 0.54433388 1.7799564e-38
3.2693462 0.44417477 0.55070138 1.6599936e-38
3.3038847 0.4958033 0.53960079 1.6322261e-38
3.2572122 0.57525259 0.55144042 5.0747421e-39
3.3189094 0.52809894 0.55044508 1.3924809e-38
3.0698426 0.67067623 0.54873925 1.2447855e-38
3.1488848 0.62946653 0.55313259 1.3832248e-38
3.2181573 0.60968888 0.53918129 9.7767235e-39
3.071877 0.73872077 0.55365503 9.3128208e-39
3.1099596 0.78563547 0.53810805 8.8514783e-39
3.1480713 0.84975606 0.5487799 8.4826972e-39
3.1868856 0.91733879 0.55973566 8.1139147e-39
3.2281384 0.96331704 0.5436399 7.7451336e-39
3.2777946 1.0308646 0.55212295 7.1919598e-39
3.3153579 1.0793232 0.54399121 6.5462288e-39
3.3673959 1.1551536 0.55157888 5.0700212e-39
3.1690819 1.28527 0.55153692 7.645731e-39
3.2534409 1.2837459 0.54941201 5.2504467e-39
3.3448472 1.2478591 0.54897702 3.6852874e-39
2.9911766 1.3973687 0.51172304 6.8253549e-39
3.0584111 1.3866539 0.52259737 6.8249989e-39
3.1331446 1.3431768 0.55238497 5.8990742e-39
2.5550332 1.4994688 0.50131905 2.121926e-39
2.6845801 1.4941118 0.50349337 3.1342633e-39
2.7554455 1.4806689 0.52151638 6.7306089e-39
2.8628554 1.4646788 0.54903549 7.9327814e-39
2.9490173 1.4305402 0.55396289 7.0104664e-39
3.0402987 1.41336 0.57097667 6.5502127e-39
3.1232078 1.4138442 0.58653277 7.4743396e-39
2.4856069 1.5718253 0.51061171 2.2126839e-39
2.552285 1.5530853 0.5346806 3.1353577e-39
2.6518552 1.5409406 0.55114311 3.4119404e-39
2.7412064 1.5270028 0.56824523 4.7015904e-39
2.8446825 1.5085729 0.57723081 8.4834147e-39
2.1959867 1.695855 0.50056863 8.2035782e-39
2.2624125 1.6729851 0.51371437 5.6239166e-39
2.3498099 1.6586477 0.52344382 6.0848877e-39
2.4544692 1.6617994 0.53960764 5.993048e-39
2.5356474 1.6434164 0.56548285 3.2271932e-39
2.6155422 1.6075214 0.59488851 3.3179539e-39
2.0807903 1.7684135 0.50791764 1.0785033e-38
2.1457269 1.7489458 0.51695079 8.1121084e-39
2.260525 1.7446222 0.53079724 5.4402512e-39
2.3526387 1.7512124 0.56621343 7.4699942e-39
2.4429824 1.7300556 0.58393669 8.7603589e-39
2.5250254 1.706829 0.59120721 6.7306103e-39
2.072382 1.8290217 0.5152297 1.1706262e-38
2.156852 1.8621372 0.5566777 8.2961269e-39
2.2520885 1.8628557 0.57629001 4.0580454e-39
2.3382924 1.8371524 0.58189732 4.7037792e-39
2.1715536 1.9253633 0.5794971 7.2801757e-39
7.7165842 -3.8039908 0.69025934 2.305034e-38
7.5542054 -3.702148 0.67028534 2.2681919e-38
7.6207933 -3.7457752 0.68718582 2.3142175e-38
7.3925147 -3.6015773 0.68260068 2.2681556e-38
7.4584246 -3.6413896 0.67636973 2.2589722e-38
7.5400839 -3.6952271 0.69078487 2.3142534e-38
6.6253986 -3.5241485 0.69779164 1.3840106e-39
7.2721753 -3.5219662 0.67672807 2.1207146e-38
7.340035 -3.567194 0.67950439 2.2036908e-38
6.5285244 -3.482038 0.69700718 8.3083687e-40
7.0974717 -3.4066381 0.68607515 2.2221662e-38
7.1365585 -3.4357126 0.67220497 1.964054e-38
7.2117062 -3.4822764 0.67892635 2.0654332e-38
6.0282731 -3.3130078 0.68057686 6.4644561e-40
6.1440868 -3.3425038 0.69493115 6.4644561e-40
6.2989149 -3.3686616 0.67249328 8.3083687e-40
6.3291345 -3.3908675 0.68176442 9.230325e-40
6.9670854 -3.3272905 0.66849405 1.8994814e-38
7.0423427 -3.3734162 0.67565995 2.0101161e-38
5.8667293 -3.2136557 0.65174282 6.4644561e-40
5.9561162 -3.2153702 0.65520787 7.3864124e-40
6.0253539 -3.2757573 0.67435586 7.3864124e-40
6.870677 -3.2518249 0.66596472 1.4570504e-38
6.9172049 -3.2727258 0.68486714 1.8718946e-38
5.6830306 -3.1243126 0.62212318 6.4644561e-40
5.7372208 -3.1096082 0.62907869 7.3864124e-40
5.569169 -3.0427253 0.60261762 6.4644561e-40
5.694602 -3.066011 0.61207998 7.3864124e-40
5.7185335 -3.0995228 0.62702966 7.3864124e-40
1.6462222 -1.4388344 0.65040684 1.0787238e-38
1.6278781 -1.3467517 0.65083498 1.0602845e-38
1.6616387 -1.2524153 0.65133929 1.0510648e-38
1.69573 -1.190174 0.64356047 1.0510645e-38
1.710431 -1.1423568 0.65279865 1.0418808e-38
1.7378284 -1.050753 0.65061319 1.0234418e-38
1.7710766 -0.97370213 0.64858216 9.3124593e-39
1.8279299 -0.92981726 0.65239793 1.0234416e-38
1.8701471 -0.85148293 0.65000957 9.7734388e-39
1.8900167 -0.78866065 0.6518321 9.1277079e-39
1.9366548 -0.74081564 0.64977556 9.5890462e-39
1.9846994 -0.68644643 0.64909536 9.4968491e-39
2.0611894 -0.64229912 0.6494962 1.032661e-38
2.1006296 -0.60217136 0.60762787 1.0695392e-38
2.0952446 -0.5878886 0.66887259 1.0695392e-38
2.1238706 -0.54118788 0.64700776 1.0234774e-38
2.1885774 -0.49662757 0.64290595 9.1280652e-39
2.2504635 -0.46529159 0.64958334 9.4046521e-39
2.3369439 -0.41769814 0.65076268 9.5890448e-39
2.3893902 -0.39287889 0.64659208 9.6808817e-39
2.4416137 -0.3450194 0.64882338 9.8652729e-39
2.4917181 -0.28756878 0.63776153 1.0048944e-38
2.5310576 -0.24850601 0.65154636 1.0233702e-38
2.6244102 -0.21163379 0.65348268 1.1619906e-38
2.6523504 -0.15040998 0.64849144 1.0972006e-38
2.6740246 -0.057796154 0.64808106 1.1426479e-38
2.720597 -0.0089761848 0.65828526 1.2997063e-38
2.7634666 0.0052995104 0.64222687 1.7610101e-38
2.8444159 0.015360205 0.648615 2.0561796e-38
2.9469182 0.026308188 0.65178454 2.2314584e-38
3.0659344 0.057912301 0.64479905 2.2131632e-38
3.1138043 0.089570045 0.6619451 2.1671735e-38
3.1635561 0.11262859 0.64892298 2.1027449e-38
3.2451649 0.14418855 0.65786642 2.0198416e-38
3.3434775 0.17233096 0.65959829 1.8815494e-38
3.4601083 0.16913219 0.63797134 1.4941855e-38
3.531842 0.16603357 0.62198877 1.3835146e-38
3.3625512 0.25600007 0.65378833 1.8998816e-38
3.4265077 0.21235183 0.62361115 1.8168702e-38
3.2773387 0.36246794 0.6451385 1.7707365e-38
3.3130999 0.3164767 0.65579563 1.8353093e-38
3.2768841 0.44426864 0.64059108 1.6784686e-38
3.3069625 0.4668873 0.68369293 1.669177e-38
3.2611985 0.57408923 0.648175 4.7056009e-39
3.3226774 0.52847636 0.65090036 1.346455e-38
3.0840418 0.67904872 0.64720213 1.2171265e-38
3.1457417 0.63844943 0.65096802 1.3739331e-38
3.2232697 0.60999429 0.65969402 1.0513931e-38
3.0740383 0.74128813 0.65040398 9.0362339e-39
3.1041017 0.79487753 0.64511615 8.4826958e-39
3.1390448 0.85045046 0.65023893 8.2061103e-39
3.1816595 0.91930634 0.64984626 7.8373278e-39
3.2263176 0.96942502 0.65012074 7.4685453e-39
3.2795982 1.0285839 0.64716953 7.0997627e-39
3.3136535 1.0769812 0.6543048 6.2700035e-39
3.3532593 1.154536 0.65016377 4.7012386e-39
3.160254 1.2825511 0.65088791 7.0936405e-39
3.2512119 1.2786472 0.64832056 5.2508055e-39
3.3313675 1.2450916 0.64886987 3.6852846e-39
3.1421928 1.344291 0.64781719 4.0569749e-39
2.8900294 1.4908085 0.62392443 8.1160881e-39
2.9463542 1.4798579 0.64777374 6.5480435e-39
3.0487361 1.4643997 0.65298337 5.5338944e-39
3.1584082 1.4371349 0.65674353 7.0130042e-39
2.6877291 1.5934759 0.60490602 2.5814636e-39
2.7641997 1.5753344 0.64533168 2.3967122e-39
2.8461361 1.5302655 0.65532398 6.7298956e-39
2.9032776 1.5024503 0.65760452 7.4692739e-39
2.5835972 1.6740783 0.65274298 1.1981718e-39
2.6400177 1.6324785 0.65191054 1.8431825e-39
2.7206228 1.6141417 0.66025782 1.4740427e-39
2.4631877 1.7641884 0.62212706 8.576332e-39
2.5413997 1.7372441 0.6569708 7.4688984e-39
2.1989677 1.8932586 0.60276389 7.5585703e-39
2.2590883 1.8853571 0.643668 5.1662049e-39
2.3437555 1.8829949 0.64578515 5.2580418e-39
2.4342608 1.8489259 0.62957442 1.0604648e-38
2.5377119 1.8480136 0.67614996 5.9015895e-39
2.1949706 1.9427863 0.60888159 7.0035902e-39
2.2208326 1.9394515 0.65694857 7.189792e-39
2.3864672 1.9047377 0.66722071 6.3647467e-39
2.440882 1.9133202 0.66779011 6.9175547e-39
2.5451021 1.9243999 0.68674171 5.9941495e-39
2.2358384 2.0078216 0.67764837 4.5143152e-39
8.5522842 -4.327003 0.76501393 2.1758516e-38
8.3839417 -4.2055449 0.78018975 2.0928037e-38
8.4455566 -4.2445951 0.767699 2.1297179e-38
8.5015965 -4.2890925 0.76047981 2.2495722e-38
8.0156984 -4.1133385 0.77483529 2.1215701e-39
8.2622318 -4.1325731 0.77480441 2.1205344e-38
8.351573 -4.1853104 0.76718837 2.1665962e-38
7.8190608 -4.0011516 0.76710755 2.398157e-39
7.9581356 -4.0551043 0.78648514 3.4123075e-39
8.0721302 -4.0171156 0.74828297 2.2588637e-38
8.1406012 -4.0599923 0.76337564 2.2219496e-38
8.2019396 -4.0905838 0.73367506 2.3326205e-38
7.6092792 -3.9047801 0.74652648 1.6605919e-39
7.7698112 -3.9983683 0.75106668 1.5683991e-39
7.8834319 -3.9089868 0.76772887 2.2957061e-38
7.9476218 -3.9451268 0.75107294 2.277303e-38
8.0144787 -3.985528 0.75736648 2.2864865e-38
7.1728916 -3.8360643 0.79684621 9.230325e-40
7.4678512 -3.8537323 0.7254737 1.568039e-39
7.5529881 -3.8377607 0.76824081 2.6747411e-39
7.7539406 -3.8322179 0.75938791 2.2773028e-38
7.8270354 -3.8729637 0.74048406 2.3049258e-38
6.9706283 -3.7178376 0.76432025 9.230325e-40
7.0500798 -3.7308712 0.75517046 1.3840106e-39
7.1404748 -3.7475951 0.75655901 1.5684019e-39
7.2484832 -3.736995 0.71986228 1.5683977e-39
7.3265862 -3.7491541 0.73638636 1.6602318e-39
7.444705 -3.7505245 0.78944308 3.4115844e-39
7.5689945 -3.7239466 0.76982588 2.3233289e-38
7.6435218 -3.7646897 0.74883664 2.3141453e-38
7.7043047 -3.7979376 0.72806078 2.3234369e-38
6.5879712 -3.6277952 0.77938771 6.4644561e-40
6.6214762 -3.6366928 0.79290408 6.4644561e-40
6.7646656 -3.6469862 0.78396207 7.3864124e-40
6.8646011 -3.6637952 0.75026417 1.0152281e-39
6.9746099 -3.6293132 0.74749982 1.4762063e-39
7.0468426 -3.6596909 0.74990106 1.5684005e-39
7.1353469 -3.6522212 0.73197186 1.7527876e-39
7.2122259 -3.6281703 0.77522218 2.8584134e-39
7.3707595 -3.6248925 0.78476608 1.9268877e-38
7.4455128 -3.6472526 0.75859141 2.323329e-38
7.5142074 -3.6843529 0.73538321 2.3325846e-38
6.4697933 -3.5393174 0.77010387 6.4644561e-40
6.5473938 -3.5471232 0.76193494 6.4644561e-40
6.6473002 -3.5741546 0.74485976 7.3864124e-40
6.7452049 -3.5927362 0.72500157 9.230325e-40
6.861455 -3.532449 0.75079101 1.4762049e-39
6.9447856 -3.5648565 0.73919326 1.5683991e-39
7.0265899 -3.5246713 0.77045631 2.5811091e-39
7.1312957 -3.5566177 0.79222524 3.9636862e-39
7.2647333 -3.5259471 0.76105356 2.3325846e-38
7.3338604 -3.5716043 0.74278057 2.3325846e-38
6.173799 -3.4086299 0.70366907 6.4644561e-40
6.2624836 -3.4213731 0.72581631 6.4644561e-40
6.3412104 -3.4575722 0.74104857 6.4644561e-40
6.42977 -3.4803743 0.74674731 6.4644561e-40
6.6740837 -3.42326 0.75584227 1.4762049e-39
6.7482138 -3.4559662 0.7489838 1.5680404e-39
6.8389401 -3.4637218 0.74006754 1.93646e-39
7.150239 -3.4388621 0.75407159 2.3325847e-38
7.2078214 -3.4815574 0.74873567 2.3417684e-38
6.0837111 -3.3150077 0.70657623 6.4644561e-40
6.1623683 -3.3641994 0.7125181 6.4644561e-40
6.235899 -3.3979125 0.73322678 6.4644561e-40
6.4705362 -3.312959 0.77296293 1.2918136e-39
6.5455141 -3.3436484 0.75184411 1.4758447e-39
6.6376972 -3.3695524 0.74606854 1.6595157e-39
6.7454925 -3.3568714 0.77128839 2.6736635e-39
6.8270087 -3.3950102 0.77811974 2.8573387e-39
6.9855018 -3.3075442 0.71052444 2.2682279e-38
7.0654726 -3.3525064 0.76044261 2.3142179e-38
6.2948895 -3.2030435 0.79012173 1.291815e-39
6.3589816 -3.2299061 0.75759476 1.3836505e-39
6.4458256 -3.2589562 0.75106353 1.6598745e-39
6.5560846 -3.2707202 0.75568748 1.9360998e-39
6.9635329 -3.2586162 0.71835381 1.8350883e-38
7.0342665 -3.2595861 0.76994234 2.0378468e-38
5.7561769 -3.1115425 0.78888667 2.6751096e-39
5.8640957 -3.1267457 0.78340715 2.8591407e-39
5.9513783 -3.1398733 0.79279613 2.9516965e-39
6.0157781 -3.1478097 0.79848194 3.2282834e-39
6.2552791 -3.1456912 0.77174443 1.475486e-39
6.3422008 -3.1515598 0.76497102 1.8439056e-39
6.4331026 -3.1712439 0.7796489 2.2123266e-39
6.5046597 -3.1971729 0.78829956 2.5811077e-39
7.0165973 -3.1957362 0.79972845 1.7338889e-38
5.5980291 -3.0180554 0.79552752 3.6892615e-39
5.6456976 -3.0267444 0.78551555 3.7814572e-39
5.7438536 -3.037545 0.78074712 3.8736528e-39
5.8509417 -3.0598609 0.79178685 3.8736528e-39
6.1924739 -3.0769081 0.79130304 1.6595185e-39
6.2376451 -3.078584 0.78716755 1.843907e-39
6.3001118 -3.0693665 0.79986614 1.6591542e-39
5.6639748 -2.9977348 0.79535693 4.6112178e-39
5.7141843 -2.9982417 0.79966921 4.7034135e-39
7.6889172 -2.3039556 0.79870957 1.7150164e-38
7.4564981 -2.2343121 0.7638092 1.7611142e-38
7.5626798 -2.2770393 0.78559637 1.6965413e-38
7.6557827 -2.2829821 0.78422302 1.7611142e-38
7.260119 -2.1859417 0.74369299 1.7426752e-38
4.8641458 -2.0095427 0.79296619 1.1804624e-38
4.9168248 -2.0336804 0.79448283 1.1897538e-38
4.691184 -1.9200482 0.79862952 1.0697194e-38
4.7579603 -1.9565388 0.79281449 1.1067416e-38
4.8207951 -1.9893214 0.79286265 1.1436201e-38
1.6474887 -1.4406359 0.74943304 1.0510651e-38
1.5945376 -1.3145162 0.78411043 9.9578301e-39
1.61894 -1.353265 0.74584556 1.0326257e-38
1.58899 -1.2735025 0.78113782 9.9578301e-39
1.6416959 -1.2447287 0.74612111 1.0142221e-38
1.6882299 -1.1624744 0.76468086 9.9578287e-39
1.7079263 -1.1364188 0.72635078 1.0142221e-38
1.6962501 -1.0876855 0.78623158 9.8652715e-39
1.7334083 -1.0471053 0.74895149 9.8656344e-39
1.7774576 -0.97905207 0.74898314 8.7592855e-39
1.8281116 -0.93300933 0.75009257 9.865633e-39
1.8709859 -0.85031402 0.74869704 9.4968519e-39
1.892451 -0.7938922 0.74210614 9.1277079e-39
1.9441682 -0.75002533 0.75198251 9.1277065e-39
1.9818107 -0.6902284 0.74481177 9.3124565e-39
2.0583019 -0.65238267 0.74707687 9.773436e-39
2.106272 -0.61393237 0.77165371 1.0234414e-38
2.096998 -0.5900166 0.71221769 1.0695392e-38
2.130224 -0.54224217 0.75224215 1.032697e-38
2.2001028 -0.50055242 0.78240645 9.4057311e-39
2.1961486 -0.4985199 0.71265519 9.2213384e-39
2.2509494 -0.47281176 0.7492488 9.2213398e-39
2.3416512 -0.42287382 0.75079429 9.4046549e-39
2.4024796 -0.40102518 0.79199076 9.3124607e-39
2.3948154 -0.39689699 0.73184568 9.4968519e-39
2.452981 -0.35476002 0.74741435 9.4968505e-39
2.5098705 -0.30887926 0.77148795 9.4964904e-39
2.5435617 -0.26687118 0.74653333 9.8641939e-39
2.6382291 -0.21823876 0.75599706 1.0602853e-38
2.6716874 -0.15134414 0.75064903 1.0784724e-38
2.6850243 -0.064390823 0.74926341 1.151687e-38
2.7348371 -0.015316137 0.75167859 1.1611959e-38
2.8051949 -0.0028477344 0.78109264 1.1798169e-38
2.7909713 0.0011931345 0.70061642 1.2353508e-38
2.8539884 0.0056246254 0.74264252 1.2537904e-38
2.9517975 0.019440686 0.74847049 1.5674716e-38
3.0596066 0.044649228 0.74412405 1.9732758e-38
3.1319687 0.078251705 0.75045794 2.1946524e-38
3.2029557 0.091469727 0.79941589 2.2040159e-38
3.178014 0.11027189 0.74350518 2.1856126e-38
3.2465067 0.14402014 0.75175732 2.1212199e-38
3.3325891 0.18582682 0.75025284 2.0383524e-38
3.3711975 0.25114381 0.75036174 1.9552699e-38
3.3409522 0.34938759 0.7502141 1.8260899e-38
3.3237844 0.44918659 0.74974507 1.6969439e-38
3.2765489 0.57268029 0.75245446 5.3506046e-39
3.3241742 0.52430809 0.74806386 1.3556746e-38
3.084404 0.67414409 0.75042856 1.2171266e-38
3.1455069 0.63256174 0.7493552 1.3832245e-38
3.2314799 0.6089595 0.74543428 1.0698317e-38
3.0847983 0.73100924 0.73737633 9.0362367e-39
3.1167095 0.77125359 0.76430547 8.2064732e-39
3.1520164 0.84873503 0.74795264 7.9295262e-39
3.2027764 0.89405429 0.79567593 7.5607437e-39
3.1862903 0.91712427 0.73327529 7.6529365e-39
3.2300408 0.96083182 0.75497961 7.376351e-39
3.2822983 1.0214592 0.74230969 6.9153729e-39
3.3200841 1.0698738 0.7525335 6.1778093e-39
3.359288 1.1546407 0.74931759 4.5168474e-39
3.1643455 1.2786881 0.75167149 7.3723798e-39
3.2501018 1.2754921 0.74949318 5.3433584e-39
3.3379302 1.2465111 0.75083733 3.6852832e-39
2.9190702 1.3990465 0.79010862 5.3469682e-39
3.0957983 1.3992414 0.79946798 4.7927098e-39
3.1567173 1.3536812 0.7591666 5.9916173e-39
3.2021382 1.3964894 0.74377692 5.6246453e-39
2.5568931 1.4957651 0.79825509 4.6075927e-39
2.8809819 1.4780829 0.77548182 6.3586286e-39
2.9459488 1.4666945 0.75969785 1.0968777e-38
3.057862 1.4577798 0.75304055 4.2406346e-39
3.1497664 1.4474283 0.73904103 4.6108563e-39
3.2053976 1.4391186 0.73977387 6.3640236e-39
2.5593376 1.5655977 0.78271401 2.4867415e-39
2.6514769 1.5768985 0.77557343 1.8410175e-39
2.7484298 1.5751266 0.74976885 1.5651523e-39
2.8454676 1.5389225 0.74859118 4.9763808e-39
2.9318349 1.5008855 0.77263355 6.6338156e-39
2.5586078 1.6512552 0.75153357 1.8417378e-39
2.6504457 1.6123619 0.72015303 1.3814827e-39
2.7118633 1.6047298 0.71140152 1.1052587e-39
2.2512565 1.7361624 0.79712695 5.2540677e-39
2.3127458 1.7663686 0.79817265 5.0689576e-39
2.5524647 1.7452579 0.74625033 7.3759825e-39
2.2888372 1.8947178 0.70505953 6.1799911e-39
2.3623111 1.8900598 0.75358772 4.8860181e-39
2.4426227 1.8881694 0.77756226 3.5949107e-39
2.5653498 1.8545438 0.77033359 4.2406262e-39
2.6055462 1.8712415 0.76492453 4.3335435e-39
2.2503297 1.9359429 0.7491771 6.9128449e-39
2.3259606 1.9173635 0.76285905 4.1484418e-39
2.4608719 1.9087237 0.73557955 4.8874446e-39
2.5620627 1.9248972 0.74351227 4.0569594e-39
2.6039121 1.9119303 0.74323738 3.5959799e-39
2.2746279 2.027235 0.74776345 4.237371e-39
2.3053236 2.0659933 0.78689533 3.2235834e-39
8.676074 -4.4104881 0.82198423 9.3121061e-39
8.5595713 -4.3276153 0.81814933 1.2354922e-38
8.6486225 -4.3807387 0.82353079 1.1432607e-38
8.2734575 -4.2098026 0.81168729 4.8877949e-39
8.3509445 -4.2130694 0.82730889 1.1248212e-38
8.4649773 -4.2730556 0.82314712 1.217089e-38
8.1783638 -4.1437283 0.82004535 6.1778149e-39
8.2333212 -4.135932 0.82357955 1.4198473e-38
8.3315344 -4.1792564 0.81135476 1.7056898e-38
7.984961 -4.0284195 0.81795639 7.7451364e-39
8.0448189 -4.0307608 0.81709468 1.4567612e-38
8.1534529 -4.0820794 0.82342213 1.5581763e-38
7.083734 -3.911016 0.87380594 7.3864124e-40
7.7712898 -3.9206498 0.80726629 5.8090309e-39
7.8559184 -3.9217427 0.81602925 1.5212978e-38
7.9248295 -3.9609199 0.81462258 1.5397371e-38
6.8985248 -3.8087599 0.88579333 8.3083687e-40
6.9680347 -3.8270166 0.87693745 7.3864124e-40
7.0477676 -3.8340013 0.87676805 7.3864124e-40
7.1519556 -3.8331761 0.86227262 7.3864124e-40
7.2523785 -3.8522825 0.83737785 9.230325e-40
7.3083448 -3.8916364 0.83086979 9.230325e-40
7.6613426 -3.8209488 0.81573236 1.253895e-38
7.7559843 -3.870379 0.8146283 1.4014436e-38
7.8156381 -3.8866467 0.8118732 1.8624215e-38
6.7775993 -3.7273321 0.85071462 7.3864124e-40
6.8527684 -3.7386274 0.85750449 7.3864124e-40
6.9589305 -3.7574382 0.86197567 8.3083687e-40
7.0608597 -3.7431278 0.86405671 9.230325e-40
7.1397567 -3.7612183 0.84134483 1.0152281e-39
7.4791031 -3.7408705 0.80928397 6.4540444e-39
7.5330281 -3.7406716 0.81239998 1.4566897e-38
7.6050191 -3.765449 0.80645025 1.9637295e-38
6.5584474 -3.6115115 0.87051123 8.3083687e-40
6.6604781 -3.6380196 0.8473137 8.3083687e-40
6.7628045 -3.6703799 0.86505479 8.3083687e-40
6.8413115 -3.6499927 0.87186646 1.1996194e-39
6.9496541 -3.6404502 0.85155296 1.1996194e-39
7.0324292 -3.6758842 0.83897012 1.1074238e-39
7.2811537 -3.6208525 0.80887318 6.9143023e-39
7.3509431 -3.6316769 0.80864811 1.5857277e-38
7.4305415 -3.6790411 0.809376 1.576544e-38
6.4604306 -3.5435159 0.86682147 1.0152281e-39
6.5561347 -3.5409031 0.86074311 1.1074238e-39
6.6837254 -3.5454886 0.85981131 1.7527932e-39
6.7528925 -3.5431056 0.84895116 1.291815e-39
6.8517785 -3.5644898 0.83529013 1.1996194e-39
6.9194427 -3.5907133 0.80861986 1.1996194e-39
7.1551566 -3.5182974 0.8125701 1.4013364e-38
7.2396693 -3.5518045 0.80995333 1.8161809e-38
7.3174853 -3.5861366 0.80235267 2.304782e-38
6.2251434 -3.4235072 0.84423292 1.1996194e-39
6.3530412 -3.4342754 0.84325027 1.291815e-39
6.4635372 -3.4432187 0.84236461 1.7527932e-39
6.5578661 -3.4125457 0.83732378 1.6605975e-39
6.6477265 -3.4529095 0.83013099 1.4762063e-39
6.7232008 -3.479178 0.81961834 1.1996194e-39
6.955677 -3.4188221 0.81537414 8.2046796e-39
7.0628848 -3.4430871 0.82684702 1.5765799e-38
7.1383586 -3.4526894 0.81850398 2.2219137e-38
7.2035923 -3.4887509 0.80025679 2.341732e-38
6.0613251 -3.3255143 0.82900238 1.3840106e-39
6.170114 -3.3324225 0.82490015 1.6605975e-39
6.232069 -3.3710968 0.83167535 1.4762063e-39
6.3778014 -3.3188396 0.82813174 2.2137713e-39
6.4471192 -3.3428001 0.82222098 1.6605975e-39
6.5339642 -3.3788736 0.81775326 1.3840106e-39
6.7484665 -3.3218884 0.80323148 3.7796509e-39
6.8573866 -3.3358982 0.83104914 1.0970904e-38
6.9573426 -3.3475611 0.85777187 1.5858349e-38
7.0762539 -3.3492608 0.85192555 2.2220216e-38
7.1014695 -3.3983119 0.82989192 2.3326205e-38
5.8604255 -3.2292633 0.81377536 1.8449888e-39
5.9505148 -3.2295732 0.81127924 2.1215757e-39
6.0456791 -3.270942 0.81403333 1.7527932e-39
6.1707759 -3.2555571 0.81126869 2.6747495e-39
6.2677355 -3.2184832 0.83534914 2.0293801e-39
6.3395157 -3.2597384 0.81333858 1.6605975e-39
6.5960617 -3.223067 0.80889249 4.1480733e-39
6.6623678 -3.234319 0.8266331 7.6518631e-39
6.7661161 -3.2572749 0.85421062 1.0049668e-38
6.8684149 -3.2887008 0.87206781 1.2815896e-38
6.9705539 -3.2185943 0.85554165 2.2220936e-38
7.0409694 -3.2707551 0.83854109 2.2773751e-38
5.6649237 -3.1133466 0.81727219 2.9513364e-39
5.7412095 -3.1511497 0.81032729 2.4903582e-39
5.8200393 -3.1909111 0.80887794 2.0293801e-39
5.9939909 -3.1018205 0.83882666 3.5048703e-39
6.0503116 -3.1280465 0.84786397 3.1360877e-39
6.1517506 -3.1656463 0.85308444 2.6751096e-39
6.2370558 -3.157294 0.85261637 1.3840106e-39
6.3896985 -3.1130126 0.80202198 2.1201351e-39
6.4445591 -3.116508 0.82284307 4.5179334e-39
6.5452681 -3.1510503 0.8425132 5.5317266e-39
6.653739 -3.1744983 0.87542772 7.0072154e-39
6.8500438 -3.1345549 0.84478539 2.2313852e-38
6.9451208 -3.1517074 0.82911968 1.964306e-38
5.4670701 -3.0110295 0.84393841 2.6747495e-39
5.5603466 -3.0391939 0.83915061 3.1357276e-39
5.6441674 -3.0367932 0.83702874 3.6892601e-39
5.7485194 -3.0209174 0.85844803 4.1502397e-39
5.8437352 -3.0393386 0.85742217 3.6892615e-39
5.9490838 -3.0785697 0.8622694 3.320479e-39
6.1822095 -3.0511646 0.84921443 1.3836505e-39
6.2386246 -3.0289223 0.8162232 1.9361026e-39
6.338747 -3.0403888 0.84240359 2.7662178e-39
6.4212637 -3.0681951 0.85922605 3.6881727e-39
6.5242887 -3.0938728 0.89421427 4.3338967e-39
6.6571746 -3.0260444 0.87040865 2.2406767e-38
6.7601275 -3.0533342 0.85963184 1.8904412e-38
6.8448448 -3.058974 0.84853935 1.4388268e-38
6.9206963 -3.0954752 0.83870649 1.4112401e-38
5.3727312 -2.9284027 0.8787446 2.6747495e-39
5.4539676 -2.9577363 0.87264538 2.9513364e-39
5.5416474 -2.9719157 0.87430048 3.3204776e-39
5.6570649 -2.9950967 0.82851863 4.3346309e-39
5.7130446 -2.9976437 0.81599498 4.7034135e-39
6.1739397 -2.9775209 0.8710776 1.7517114e-39
6.2377782 -2.9791563 0.86712158 2.0286542e-39
6.3119874 -2.9977465 0.88333714 2.1208484e-39
6.4760246 -2.9168291 0.87512594 2.3142178e-38
6.554678 -2.9544759 0.86935961 2.2774473e-38
6.6369758 -2.9682772 0.85954845 2.0011482e-38
6.7328382 -2.981837 0.85755956 1.3097529e-38
5.3524151 -2.8952732 0.8976773 2.4903582e-39
5.5873427 -2.8107781 0.89476752 1.291815e-39
5.6480227 -2.8331552 0.8942852 1.291815e-39
5.7109489 -2.8647184 0.89808404 1.291815e-39
6.3529396 -2.8357821 0.87068212 2.3142181e-38
6.4422002 -2.8614311 0.86724281 2.18536e-38
6.5439062 -2.8789551 0.86267084 1.863071e-38
5.1443992 -2.7229569 0.8965562 2.4896393e-39
5.2945833 -2.7055113 0.89371431 1.5684019e-39
5.3534184 -2.7317104 0.89592236 1.5684019e-39
5.462976 -2.7520671 0.89451057 1.291815e-39
5.538013 -2.7766275 0.8948316 1.1996194e-39
6.1566467 -2.7196906 0.87045264 2.3234016e-38
6.2476687 -2.7577643 0.87050658 2.2681921e-38
6.3401489 -2.7595863 0.87229252 1.9642342e-38
6.432735 -2.7773359 0.88431531 1.5310946e-38
4.9596887 -2.6201794 0.87296057 2.3970836e-39
5.0694966 -2.6209404 0.88498074 2.0286612e-39
5.1484923 -2.655184 0.88884372 1.9368243e-39
5.2514501 -2.6872509 0.89589077 1.5684019e-39
5.971271 -2.6148274 0.87582952 2.3234375e-38
6.0508885 -2.6450622 0.86877573 2.2681921e-38
6.1444979 -2.6600649 0.87080258 2.0379189e-38
6.2309971 -2.6701508 0.88995856 1.669352e-38
4.8822813 -2.5300374 0.86990917 1.8439098e-39
4.9487247 -2.5580461 0.87921965 1.7517142e-39
5.0250349 -2.5902381 0.8786642 1.9364642e-39
5.8641911 -2.5300124 0.8836568 2.2589364e-38
5.9478297 -2.5719819 0.87525177 2.1760684e-38
6.0465989 -2.5823371 0.88691455 1.7891344e-38
8.2824764 -2.5057108 0.88426501 1.4568686e-38
8.4160719 -2.5582693 0.8985281 1.3184672e-38
4.8480277 -2.4843054 0.8917625 1.0141491e-39
5.6603823 -2.4163637 0.88686639 2.2313496e-38
5.7452669 -2.4477794 0.88242882 1.9364314e-38
5.8326154 -2.4797456 0.88143432 1.7337089e-38
8.0935106 -2.4485428 0.85241413 1.51215e-38
8.1647024 -2.4229498 0.85844672 1.6689546e-38
8.2504759 -2.4430547 0.88305336 1.7058327e-38
8.3002138 -2.451205 0.8981331 1.7519305e-38
5.4751878 -2.3111281 0.87676263 1.7338164e-38
5.5429063 -2.3464835 0.87590128 1.8443435e-38
5.6268158 -2.3760083 0.87091148 1.5308785e-38
7.7990608 -2.3594625 0.8101511 1.6043456e-38
7.8655796 -2.339848 0.81136453 1.7334555e-38
7.9632187 -2.3659735 0.83580649 1.6505155e-38
8.0502729 -2.3564658 0.84319687 1.6874656e-38
8.1430283 -2.3812902 0.84976149 1.7059049e-38
8.2159224 -2.3788888 0.88901234 1.7796614e-38
5.2604375 -2.2158873 0.87487453 1.5125104e-38
5.3437562 -2.2445173 0.86685914 1.5125466e-38
5.436636 -2.2826471 0.86710101 1.4295348e-38
5.520123 -2.2991419 0.85214812 8.1164426e-39
7.8787742 -2.2812805 0.82410109 1.6321482e-38
7.931046 -2.2964158 0.84674513 1.7428191e-38
5.0748453 -2.1224713 0.85368979 1.2450711e-38
5.1558003 -2.1610408 0.86096764 1.3372667e-38
5.2220759 -2.188168 0.85695088 1.3926202e-38
4.8454943 -2.011167 0.82136005 1.22656e-38
4.9515476 -2.0618551 0.8380996 1.2357795e-38
5.0121279 -2.0929873 0.84603727 1.3556699e-38
4.6890497 -1.9191748 0.80503094 1.0512805e-38
4.7635736 -1.966652 0.82055151 1.078975e-38
4.8067536 -1.9950877 0.84604228 6.1792498e-39
1.6343298 -1.4375697 0.84124488 1.023442e-38
1.5899798 -1.3360901 0.83823204 9.8656344e-39
1.6059008 -1.3782594 0.82529128 1.0142223e-38
1.5829053 -1.2625885 0.83220232 9.8656344e-39
1.6320269 -1.220955 0.84345657 9.6808831e-39
1.6763257 -1.1558743 0.8485477 9.2195434e-39
1.7026041 -1.1053182 0.89612025 5.1593399e-39
1.6884158 -1.0795416 0.83591056 9.218463e-39
1.7310829 -1.0359899 0.85155028 8.0199198e-39
1.7780554 -0.98483324 0.85307848 7.5600234e-39
1.8550274 -0.94399256 0.85082006 9.3124565e-39
1.9021684 -0.90548182 0.89342541 9.5886818e-39
1.8895919 -0.84653193 0.83997548 9.3120991e-39
1.9040999 -0.8597185 0.88136178 9.1277065e-39
1.8957807 -0.79701704 0.84294504 9.3124579e-39
1.9507393 -0.75386149 0.85041535 8.8514797e-39
1.9851118 -0.69351333 0.84753615 9.2202622e-39
2.0497365 -0.66953671 0.84970081 9.2202608e-39
2.1135564 -0.62548411 0.85270059 1.0050022e-38
2.1270623 -0.54252762 0.84960836 9.9581846e-39
2.196429 -0.49862623 0.83754545 8.5759718e-39
2.247242 -0.48361617 0.84132338 7.9298864e-39
2.3477838 -0.44276336 0.85129344 6.4536801e-39
2.4167094 -0.40911239 0.86594719 5.8083121e-39
2.4645293 -0.3774828 0.8453353 7.9288088e-39
2.5318723 -0.32898936 0.85875064 7.5603864e-39
2.5728316 -0.27783433 0.85032946 8.0210016e-39
2.6301258 -0.23060945 0.85550612 9.034792e-39
2.6707993 -0.15140735 0.85067642 9.7709165e-39
2.6914098 -0.071638346 0.84690356 1.0138621e-38
2.727442 -0.024281848 0.85478014 1.0508854e-38
2.8290904 -0.0028719925 0.85309726 1.2630448e-38
2.8777523 0.0012302335 0.85119718 1.2538618e-38
2.9542422 0.0078009674 0.83796072 1.2538262e-38
3.0527203 0.019458851 0.84576768 1.254043e-38
3.1557398 0.04621356 0.84439945 1.2911383e-38
3.2392514 0.075119801 0.85240644 1.4571985e-38
3.3146873 0.087504879 0.89090312 1.2911749e-38
3.2621608 0.13027145 0.83246511 1.8906603e-38
3.3355064 0.16739009 0.85226476 1.9368303e-38
3.4039168 0.18806078 0.89868009 1.9274684e-38
3.3833268 0.2483137 0.84542972 1.9921481e-38
3.4029138 0.28560129 0.89017141 1.9735659e-38
3.3838365 0.35149631 0.84598327 1.862968e-38
3.4022503 0.32766831 0.8925783 1.9090654e-38
3.3556278 0.45029411 0.85088265 1.7337865e-38
3.1983414 0.59658968 0.89977503 1.0423177e-38
3.2776847 0.56607628 0.85494792 7.2885205e-39
3.3195736 0.51429802 0.84598011 1.4755657e-38
3.0927956 0.67507553 0.85048747 1.1710287e-38
3.1427498 0.62922317 0.85176933 1.3648214e-38
3.2220004 0.60350144 0.83381885 1.0791233e-38
3.0962932 0.70461422 0.8313697 1.0326981e-38
3.1378412 0.75405657 0.85198116 8.2986689e-39
3.1804979 0.83321798 0.85268885 7.7451322e-39
3.2121887 0.882608 0.85265964 7.4685467e-39
3.2555897 0.94781917 0.85249335 7.1919612e-39
3.2938843 1.0063448 0.83039999 6.8231787e-39
3.3365171 1.0545183 0.85459781 6.2700049e-39
3.3707218 1.1540422 0.85110033 4.3324589e-39
3.1494093 1.2764586 0.85268801 7.0035874e-39
3.252645 1.2690887 0.85239452 5.0674876e-39
3.3366663 1.240739 0.84882379 3.5934491e-39
2.9659514 1.3847455 0.86059862 3.3172252e-39
3.0607767 1.3521488 0.85733658 4.6072325e-39
3.1176002 1.3319583 0.82535672 5.4369862e-39
2.5694981 1.4942306 0.81442267 5.7139374e-39
2.6434827 1.4849328 0.83208615 5.2529621e-39
2.7329707 1.4918506 0.8464542 5.7132172e-39
2.8628151 1.4571775 0.84566659 5.2536865e-39
2.9300914 1.4146252 0.85672849 3.5938135e-39
3.0500779 1.4139198 0.82103413 5.3458836e-39
2.4977243 1.5631117 0.81490815 5.0682093e-39
2.5336678 1.5512707 0.84730524 4.7930643e-39
2.644105 1.520972 0.85525101 3.7792767e-39
2.7605643 1.5235808 0.82970917 4.2380927e-39
2.8300815 1.5133847 0.83975494 6.2667525e-39
2.2795253 1.6861 0.83892107 7.3723714e-39
2.3480668 1.6725295 0.84479982 6.8191962e-39
2.4626839 1.6784767 0.86025429 7.188336e-39
2.5131328 1.6430289 0.84463757 4.8841782e-39
2.1964607 1.7378318 0.8256644 6.7277362e-39
2.2325222 1.7459347 0.84135175 6.4515095e-39
2.352633 1.7488775 0.83380723 4.9760235e-39
2.4548573 1.7515988 0.82922864 4.4224853e-39
2.5263798 1.750825 0.81106251 5.7139416e-39
2.1948879 1.8536412 0.88456732 8.9414879e-39
2.2334814 1.8611603 0.84834033 6.1749296e-39
2.3544958 1.858862 0.82119358 1.6222513e-38
2.4543538 1.8333557 0.80688417 4.0551644e-39
2.5210855 1.827883 0.80335158 3.317228e-39
2.1936338 1.9360719 0.89612418 7.8340642e-39
2.2346988 1.9350313 0.84368026 6.5429764e-39
2.3391099 1.9119065 0.82279718 7.6493996e-39
2.2847655 2.0338998 0.85812396 3.4998032e-39
2.305732 2.0634823 0.81852031 3.2232219e-39
6.9723997 -3.8093119 0.90533793 7.3864124e-40
7.0415502 -3.8369217 0.90584373 7.3864124e-40
6.9514933 -3.7778325 0.9026233 7.3864124e-40
7.0594754 -3.3186419 0.91350371 1.779518e-38
6.7859473 -3.2179537 0.90070748 8.1146419e-39
6.8648787 -3.2266593 0.94186562 1.0787955e-38
6.9556599 -3.2467556 0.93917322 1.6872864e-38
7.0280356 -3.2777035 0.92485613 1.8993723e-38
6.066123 -3.1115305 0.94382101 2.2137713e-39
6.1461325 -3.1403849 0.92839104 1.8449888e-39
6.2484913 -3.1546509 0.92463326 1.2921751e-39
6.5644937 -3.1034679 0.90919501 4.6101276e-39
6.6683211 -3.1268861 0.95084262 6.5462372e-39
6.7518511 -3.14151 0.95370096 1.3276878e-38
6.8436766 -3.159925 0.94289768 2.0284108e-38
6.9199128 -3.1936274 0.92046291 2.1943988e-38
5.6960883 -3.0051818 0.9039647 3.5970659e-39
5.7632532 -3.0148151 0.92792499 3.1360863e-39
