# .PCD v0.7 - Point Cloud Data file format
VERSION 0.7
FIELDS x y z rgb
SIZE 4 4 4 4
TYPE F F F F
COUNT 1 1 1 1
WIDTH 1032
HEIGHT 1
VIEWPOINT 0 0 0 1 0 0 0
POINTS 1032
DATA ascii
6.9477081 1.7552174 -0.54303366 2.8613155e-39
7.046679 1.7876821 -0.54318261 2.8609568e-39
3.6781938 1.8083848 -0.5067389 7.3785287e-39
3.7561872 1.8260751 -0.51308614 7.1022991e-39
3.8573513 1.8376381 -0.51410127 6.364011e-39
3.9179337 1.8146185 -0.51197559 5.6260844e-39
5.6577802 1.8085788 -0.55153757 4.7059344e-39
5.7513785 1.8223287 -0.5669322 3.8761737e-39
5.8583231 1.8381186 -0.57469159 5.0743582e-39
5.9147596 1.8115249 -0.59727257 5.3491458e-39
7.0573444 1.8051188 -0.57519209 2.6772844e-39
7.1533933 1.8305445 -0.55891293 2.7691213e-39
7.253819 1.8658203 -0.55643535 2.7694814e-39
7.3483901 1.8856012 -0.53598636 2.8609582e-39
7.3615952 1.9147583 -0.57603848 3.0460683e-39
7.457859 1.9290946 -0.55297804 3.3222965e-39
7.5624437 1.9615993 -0.54408735 3.5988834e-39
7.6621499 1.9929769 -0.54709536 4.151697e-39
7.6742077 2.0127254 -0.59227073 5.2584047e-39
7.7394071 2.0186617 -0.54147285 4.2442542e-39
7.8418078 2.0560443 -0.55421191 4.2438941e-39
7.939342 2.0841668 -0.53826636 4.3360883e-39
3.6486471 2.1650102 -0.5065096 4.1552801e-39
7.9657359 2.1006541 -0.56871128 4.0598629e-39
8.0554819 2.1243412 -0.55194086 4.8896222e-39
8.1517925 2.1526873 -0.54094911 3.5070479e-39
8.2410936 2.1792312 -0.52303737 3.4148537e-39
8.3002615 2.1948774 -0.50287533 3.5077696e-39
3.6997888 2.2113259 -0.51238096 3.9712476e-39
3.7504857 2.2509079 -0.51332903 3.7864962e-39
8.3535528 2.2210209 -0.56028908 4.2442528e-39
8.4607801 2.2556481 -0.54929525 4.2446129e-39
8.5476742 2.2849648 -0.5362854 3.5996064e-39
3.8616629 2.3349733 -0.51840711 5.3538219e-39
3.9282613 2.3855357 -0.53392524 6.8285919e-39
8.5918484 2.3091683 -0.59491211 3.967303e-39
8.6577473 2.3286712 -0.56017357 3.8758304e-39
8.7531099 2.3635783 -0.54928732 3.9683862e-39
8.8163872 2.3864775 -0.53839773 4.1527788e-39
3.9768889 2.4268167 -0.53414637 6.4598094e-39
4.0326462 2.4745872 -0.54779786 7.8427424e-39
8.8733988 2.4147069 -0.56957203 4.0605804e-39
8.9540682 2.4465959 -0.55675113 4.0605804e-39
9.0440598 2.4796464 -0.54630893 3.9687449e-39
4.075922 2.5219746 -0.55971307 9.1338386e-39
4.1274695 2.5694654 -0.55318677 9.2260328e-39
8.848278 2.5950935 -0.59990257 6.7360403e-39
9.0884676 2.5147595 -0.58341265 3.9683834e-39
9.1541405 2.5278032 -0.55021101 3.8761877e-39
9.2537622 2.5686491 -0.55171883 3.5996008e-39
9.3328094 2.5935783 -0.53399009 3.5074066e-39
3.8799191 2.6800179 -0.53451812 1.5488008e-38
3.9135668 2.6966715 -0.55142093 1.6225562e-38
4.0640039 2.6596224 -0.57550579 1.3004148e-38
4.1654329 2.6180019 -0.55296904 8.6724933e-39
4.2318592 2.6732402 -0.54080319 6.645267e-39
8.5614042 2.6739748 -0.57673299 7.8416662e-39
8.6520367 2.6748195 -0.57722121 8.0260575e-39
8.7517014 2.6631513 -0.58416355 8.3026458e-39
8.8519964 2.6576574 -0.58040977 8.026419e-39
8.9538698 2.6461854 -0.5703432 7.1041054e-39
9.0305872 2.658155 -0.53524369 7.1026662e-39
9.1382647 2.6556435 -0.52731979 8.0249841e-39
9.2500811 2.6594884 -0.56484562 6.8264423e-39
9.3567562 2.6346605 -0.54439205 3.8765451e-39
9.4446764 2.6578159 -0.549752 2.8623931e-39
9.5108156 2.6906171 -0.5350464 3.0464243e-39
3.9711833 2.7194118 -0.54997927 1.687092e-38
4.0467362 2.7396305 -0.55460244 1.6871998e-38
4.1372685 2.7448552 -0.57192028 1.521465e-38
4.2658958 2.7378325 -0.55735594 1.0331251e-38
4.3284488 2.7697213 -0.54517287 9.3171228e-39
8.6720266 2.7122889 -0.55042052 7.750188e-39
8.7682343 2.7335286 -0.54639882 7.8416662e-39
8.867588 2.7457187 -0.54577672 7.1962968e-39
8.9661598 2.7525184 -0.54646653 7.0115468e-39
9.0513115 2.7479799 -0.5333463 7.4710872e-39
9.1414318 2.7777886 -0.51571947 5.1665566e-39
9.4651194 2.7122524 -0.59163016 4.7063029e-39
9.5482054 2.7301197 -0.54470187 3.3230098e-39
4.0782242 2.8081603 -0.51626408 1.2722128e-38
4.1501894 2.8274605 -0.52098739 1.6410297e-38
4.2496476 2.8369212 -0.53497368 1.7150027e-38
4.3473048 2.836035 -0.53961623 1.1804538e-38
8.9621668 2.8051872 -0.50848436 2.8602295e-39
9.0591888 2.8072309 -0.50964725 3.413762e-39
9.1557531 2.8107421 -0.51506048 3.9672946e-39
11.762936 -2.4047036 -0.49205387 5.3447822e-39
11.999656 -2.4357851 -0.48464459 5.8053974e-39
12.01075 -2.4293685 -0.45909679 6.8199024e-39
12.150829 -2.4489417 -0.48198009 5.8979503e-39
12.249831 -2.4394577 -0.4712235 8.5716166e-39
12.333277 -2.4456828 -0.48030949 8.6641752e-39
12.497764 -2.4828045 -0.48673224 8.0191659e-39
11.282549 -2.3227749 -0.44754931 5.2518719e-39
11.346414 -2.335923 -0.47463036 4.9756437e-39
11.425273 -2.3439031 -0.45313758 6.5429666e-39
11.501391 -2.3512361 -0.43133533 6.8188304e-39
11.638321 -2.3624384 -0.41968045 9.6772481e-39
11.743132 -2.3803201 -0.44038972 8.4790678e-39
11.838404 -2.3262072 -0.41408542 1.2351996e-38
11.944113 -2.3513186 -0.43500948 1.1614434e-38
12.049208 -2.3589399 -0.46057084 1.1061622e-38
12.170162 -2.3826084 -0.48275989 1.0231862e-38
10.576221 -2.2078767 -0.4805674 4.6065137e-39
10.655439 -2.2090421 -0.41498187 4.6061465e-39
10.726913 -2.2238595 -0.41776067 5.2515145e-39
10.825678 -2.2443352 -0.45284754 4.4224713e-39
10.958647 -2.2719018 -0.48214558 4.514674e-39
11.136427 -2.2926922 -0.40961999 7.0028686e-39
11.547365 -2.2107038 -0.45807248 9.2184462e-39
11.654544 -2.2424192 -0.43715501 1.0047844e-38
11.745157 -2.2739773 -0.42355201 1.0601008e-38
11.829648 -2.2818122 -0.46071211 1.0140035e-38
11.915655 -2.2984021 -0.48125196 1.0508821e-38
5.7889676 -2.1104519 -0.40083659 2.1190632e-39
5.911293 -2.1337488 -0.40077853 2.3945724e-39
9.9630718 -2.1086233 -0.46708634 3.9615072e-39
10.041222 -2.110677 -0.40554696 3.9604198e-39
10.152071 -2.1339779 -0.43202066 4.1455327e-39
10.260629 -2.1567967 -0.47363892 4.3299268e-39
10.300795 -2.1503792 -0.41603065 4.1451698e-39
10.410642 -2.1733105 -0.4354862 4.2380843e-39
10.502385 -2.1924629 -0.45447531 4.5143166e-39
11.151466 -2.1188226 -0.40212432 8.4816112e-39
11.242558 -2.1361303 -0.43788335 8.4808909e-39
11.364016 -2.1592078 -0.48356497 8.8489574e-39
11.448555 -2.191787 -0.42111421 9.3106404e-39
5.1720214 -2.0070422 -0.41675738 7.3684197e-40
5.2530494 -2.0165968 -0.4273746 7.372021e-40
5.3532434 -2.021956 -0.42577773 7.3684337e-40
5.4436345 -2.0238006 -0.41256246 9.208759e-40
5.5467343 -2.0291364 -0.40704647 1.1978229e-39
5.6598845 -2.0361612 -0.40276197 1.7506394e-39
5.7960634 -2.0503356 -0.40132788 2.670802e-39
5.8049874 -2.0828052 -0.40194577 2.302737e-39
5.9226894 -2.0780299 -0.40155122 4.1445e-39
9.079525 -2.0002179 -0.4256494 3.5012535e-39
9.1748514 -2.0079823 -0.44332293 3.7771201e-39
9.2655573 -2.0144668 -0.45970416 3.9611513e-39
9.3026857 -2.0225391 -0.42940226 3.6849245e-39
9.4223099 -2.0349536 -0.4485046 3.7771173e-39
9.5651636 -2.052007 -0.45533729 3.8689542e-39
9.6795692 -2.0625858 -0.41190001 3.86895e-39
9.7292547 -2.0731733 -0.46314424 4.0533441e-39
9.8711796 -2.0891747 -0.41292003 3.9611443e-39
9.9193134 -2.0993619 -0.42924371 4.1458971e-39
10.780837 -2.0328484 -0.49763116 8.2035992e-39
10.880111 -2.0515673 -0.44727862 8.1121182e-39
4.7703943 -1.9065554 -0.43851143 1.4751231e-39
4.8499331 -1.919839 -0.45350105 1.4751231e-39
4.9495497 -1.9424661 -0.45019594 1.3829288e-39
5.0511708 -1.9643999 -0.45306671 1.3825687e-39
5.1496129 -1.9753819 -0.46635327 1.5673187e-39
5.2556024 -1.9574138 -0.47903156 1.290736e-39
5.3542404 -1.9479594 -0.46004349 6.4536801e-40
5.4486241 -1.9486797 -0.42809904 7.3684757e-40
5.545486 -1.9613227 -0.40904725 1.2896612e-39
5.6390591 -1.9906678 -0.40263838 2.0265088e-39
8.2928715 -1.9106652 -0.4665316 3.3175881e-39
8.3036919 -1.9131579 -0.41922423 3.4094236e-39
8.427 -1.9294109 -0.44973052 3.4094236e-39
8.5525999 -1.945829 -0.45026734 3.5016165e-39
8.6647301 -1.9588399 -0.4499276 3.501615e-39
8.7722235 -1.9704857 -0.44921398 3.501615e-39
8.875536 -1.9808882 -0.45451081 3.5934505e-39
8.9705696 -1.9891566 -0.44642213 3.5934491e-39
9.0627851 -1.9946558 -0.46500042 3.7774803e-39
9.1155338 -1.9950001 -0.48651582 4.1451824e-39
10.240242 -1.9161398 -0.45049503 8.0202855e-39
10.341545 -1.9350957 -0.41765037 7.9280871e-39
2.4767134 -1.8062276 -0.44582909 4.6205435e-40
2.5505524 -1.8261486 -0.45023438 8.3047673e-40
2.65328 -1.8439121 -0.44633406 8.3083687e-40
2.7447157 -1.8478006 -0.45404682 7.3864124e-40
2.8498318 -1.8609293 -0.45167983 8.30118e-40
2.9508882 -1.8810672 -0.44850218 8.2975787e-40
3.0529995 -1.8864547 -0.44859713 7.3792237e-40
3.1509144 -1.8757176 -0.45213628 5.5424998e-40
3.2524331 -1.8496325 -0.45105079 4.6133548e-40
3.3412516 -1.8153799 -0.44507915 9.219535e-40
4.2705812 -1.8046386 -0.41321135 1.5673201e-39
4.3574767 -1.812101 -0.44144377 1.198539e-39
4.4490614 -1.8306127 -0.44788885 1.2907332e-39
4.5518484 -1.8558493 -0.4477728 1.3832876e-39
4.6542583 -1.8798027 -0.4490476 1.4754818e-39
4.7329602 -1.8943701 -0.46372804 1.3832862e-39
5.2928772 -1.8326361 -0.4905661 1.1985432e-39
5.3445897 -1.8499792 -0.45500726 8.2940194e-40
5.4320149 -1.871866 -0.41589764 1.0127184e-39
7.3404422 -1.8041649 -0.44124779 4.2413493e-39
7.4446702 -1.8163594 -0.44565451 4.0573182e-39
7.5460372 -1.8286418 -0.45021495 4.2409892e-39
7.6566792 -1.8413925 -0.45449865 3.9644023e-39
7.7749186 -1.8586292 -0.44294789 3.0424432e-39
7.8645735 -1.8675801 -0.45826107 2.581465e-39
7.95258 -1.8760589 -0.45467755 2.8576904e-39
8.0574417 -1.8847347 -0.44819903 3.2261128e-39
8.1784096 -1.8960919 -0.44827712 3.2261128e-39
9.6717472 -1.809764 -0.48829603 7.836253e-39
9.8376646 -1.8408102 -0.48248026 7.8362544e-39
9.9722576 -1.865995 -0.47469464 8.0199268e-39
10.102313 -1.8903309 -0.46631122 8.0199282e-39
2.4649966 -1.7965263 -0.42047137 3.6985872e-40
3.3730612 -1.7516882 -0.45052516 1.3832918e-39
3.8552461 -1.7091342 -0.44787365 7.3864124e-40
3.9445131 -1.7300217 -0.4487451 7.3792097e-40
4.0502367 -1.7552086 -0.45030189 7.3756224e-40
4.1497016 -1.7731351 -0.45328262 6.4536661e-40
4.2456999 -1.7862597 -0.45828745 7.3756224e-40
4.3260102 -1.794203 -0.47740242 7.3756224e-40
5.1919289 -1.7055464 -0.48307678 2.3048879e-39
5.2538276 -1.7491393 -0.45823419 1.566967e-39
5.3213944 -1.7826265 -0.42409259 8.2904461e-40
5.6634555 -1.7052039 -0.40031639 2.0293801e-39
5.7630944 -1.7143947 -0.40735438 3.0435334e-39
5.8520212 -1.7171967 -0.40772548 1.4758489e-39
5.9126468 -1.7247876 -0.40087029 1.5680418e-39
6.7664275 -1.7053995 -0.44412208 4.1498753e-39
6.8875427 -1.7259889 -0.45206672 4.4264608e-39
6.9220028 -1.7346245 -0.44822851 4.4264622e-39
7.0645943 -1.7601656 -0.45346528 5.0718316e-39
7.1727734 -1.7767711 -0.47076496 5.900872e-39
7.2408571 -1.7883878 -0.44925228 4.9789157e-39
7.3471222 -1.7987599 -0.49282545 6.0849046e-39
9.218174 -1.71825 -0.46542537 7.9280913e-39
9.3273544 -1.7318655 -0.43054003 7.8355383e-39
9.4471693 -1.7609358 -0.45655981 8.0202869e-39
9.5194025 -1.7675242 -0.41193819 8.1124825e-39
9.6021118 -1.7828813 -0.40166467 7.9280885e-39
3.3734376 -1.6733085 -0.45465931 1.291815e-39
3.4508553 -1.6525486 -0.44867793 1.3840106e-39
3.5443053 -1.6415912 -0.44925132 1.9371844e-39
3.6487176 -1.6546854 -0.45221218 1.5684019e-39
3.7542803 -1.683791 -0.44985139 1.0152281e-39
3.812891 -1.6964319 -0.47471166 6.4644561e-40
5.0740585 -1.618964 -0.45465577 1.5684019e-39
5.1411581 -1.6665447 -0.44448379 1.7517156e-39
5.2752609 -1.6060743 -0.40585184 1.0148638e-39
5.3575802 -1.6156678 -0.43667042 6.8235416e-39
5.4598436 -1.6308829 -0.45090157 9.8670736e-39
5.544703 -1.6440171 -0.45515659 1.014366e-38
5.6506033 -1.6531247 -0.45717466 1.078903e-38
5.7540088 -1.6619242 -0.44959229 1.4384661e-38
5.8457994 -1.6613717 -0.43215081 1.0419537e-38
5.9286056 -1.6632593 -0.40697315 2.3981626e-39
6.2671175 -1.6044112 -0.42945623 5.4409743e-39
6.3830719 -1.622581 -0.48344606 4.2420724e-39
6.4473143 -1.6417087 -0.44358057 4.4264636e-39
6.5747027 -1.6665628 -0.45519501 4.2420724e-39
6.6164231 -1.6771382 -0.41039512 4.1502327e-39
6.7340045 -1.697228 -0.49541697 4.6108549e-39
8.7533607 -1.6189585 -0.42923656 7.8358985e-39
8.9572601 -1.6696343 -0.4716832 7.8362544e-39
9.0765915 -1.6853048 -0.44515398 7.8362558e-39
4.9767346 -1.5214869 -0.48308226 1.6613136e-39
5.040309 -1.5625793 -0.45268613 1.8453447e-39
5.1458178 -1.5541582 -0.45508915 3.3208321e-39
5.2478094 -1.5569861 -0.47175822 4.3357029e-39
5.3520231 -1.5499609 -0.48897049 5.7200751e-39
5.4526515 -1.5208619 -0.48656151 6.9186183e-39
5.5526023 -1.5445795 -0.47473755 5.8119106e-39
5.6500483 -1.5408217 -0.45055616 5.1651063e-39
5.7482796 -1.5342852 -0.44044402 5.9026713e-39
5.8444548 -1.5352553 -0.44131917 6.3632907e-39
5.9476233 -1.5452477 -0.44329107 6.2710951e-39
6.0448499 -1.560903 -0.44032726 6.270735e-39
6.1450195 -1.5777813 -0.44322565 5.9015937e-39
6.2228394 -1.59233 -0.44884619 5.1640287e-39
8.2102852 -1.5066874 -0.42043561 7.6522247e-39
8.3462248 -1.5376329 -0.42934275 7.744779e-39
8.4536419 -1.5452466 -0.40240622 8.0206513e-39
8.5285416 -1.5773873 -0.43671316 7.8366159e-39
8.6576891 -1.5950345 -0.41211915 7.9284542e-39
5.4435 -1.4940863 -0.49381793 6.1803372e-39
5.5511084 -1.496151 -0.49046558 5.9955872e-39
5.6489186 -1.4970602 -0.49300262 6.364011e-39
5.7198482 -1.4993842 -0.49507234 6.4562066e-39
7.8491035 -1.4347062 -0.41888741 7.8366187e-39
8.039319 -1.4694852 -0.4174507 7.7444217e-39
8.2034845 -1.4876852 -0.4023332 7.8369775e-39
1.5639817 -1.3326224 -0.48796558 9.2267657e-40
1.6197358 -1.3666437 -0.49250016 8.3048094e-40
7.2559352 -1.3210635 -0.41341519 7.7444245e-39
7.3230958 -1.3174639 -0.40141428 7.744786e-39
7.4689045 -1.3598387 -0.41477486 7.7447846e-39
7.5262523 -1.3540127 -0.40169242 7.7447832e-39
7.6693754 -1.3963419 -0.41484755 7.9288144e-39
7.7308011 -1.3908122 -0.40145671 7.6525876e-39
1.3788503 -1.2080554 -0.43143469 9.2267657e-40
1.4363636 -1.2361228 -0.46356356 1.0148722e-39
1.5100192 -1.291566 -0.48182341 1.1070678e-39
2.9651806 -1.211481 -0.49619415 9.230325e-40
3.0053234 -1.2343804 -0.49858269 1.0152281e-39
6.6394033 -1.2040423 -0.40225148 7.7440658e-39
6.8388586 -1.2402132 -0.4044694 7.6522289e-39
7.0377069 -1.2813323 -0.41113526 7.6522275e-39
1.2825756 -1.1306462 -0.48695415 8.3048094e-40
1.3406277 -1.1700188 -0.46234477 9.2267657e-40
1.4041964 -1.1958725 -0.49529615 8.3048094e-40
2.7931609 -1.1029131 -0.49360263 9.230325e-40
2.8522112 -1.128527 -0.48711336 9.230325e-40
2.9283602 -1.1602247 -0.49234352 9.230325e-40
6.1156788 -1.1090659 -0.40581277 7.9291717e-39
6.2411132 -1.1318133 -0.40513229 7.8366201e-39
6.3608851 -1.1535336 -0.40373051 8.1132056e-39
6.4899378 -1.176937 -0.40255883 7.7447846e-39
2.652611 -1.0129739 -0.49360666 1.382926e-39
2.762356 -1.0695181 -0.49428988 1.1067021e-39
2.8132131 -1.0868952 -0.49430352 1.1070608e-39
5.5600843 -1.00831 -0.40103102 7.6525834e-39
5.7264161 -1.038474 -0.40476668 7.5603892e-39
5.8634315 -1.0633214 -0.40599254 7.7451378e-39
5.9910445 -1.0864638 -0.4061856 8.0217247e-39
2.576031 -0.98372966 -0.4886753 1.4758405e-39
4.7734489 -0.90523863 -0.41829121 7.3763608e-39
4.8201566 -0.91584879 -0.42415482 7.4681949e-39
5.4617763 -0.99836153 -0.40181983 7.7447804e-39
4.3699846 -0.81855106 -0.44653073 7.3760007e-39
4.4346652 -0.83383858 -0.43354371 7.4681949e-39
4.5386777 -0.85256565 -0.41706109 7.4681949e-39
4.644278 -0.87500244 -0.41611779 7.3763594e-39
4.7310328 -0.88754654 -0.40949419 7.4681977e-39
1.840757 -0.71782637 -0.47444376 6.0830997e-39
1.9240565 -0.76177788 -0.48711741 6.08382e-39
4.0829134 -0.70508653 -0.41817263 7.3756476e-39
4.1572547 -0.73306072 -0.43357769 7.3756476e-39
4.2487874 -0.76886863 -0.44434193 7.3756448e-39
4.327879 -0.7897076 -0.42830837 7.3756448e-39
1.7822645 -0.68112016 -0.46660689 5.9912628e-39
1.8070449 -0.69375992 -0.4793717 5.9909041e-39
4.0497608 -0.68866676 -0.4123598 7.1919752e-39
0.88729692 -0.30186227 -0.41594732 5.1614937e-39
0.89004964 -0.28821191 -0.41893846 7.7415308e-39
0.95482481 -0.25612035 -0.43658575 8.2021516e-39
1.0203158 -0.21815757 -0.4456684 7.9262864e-39
1.067557 -0.17280856 -0.45282024 7.6504212e-39
1.1264277 -0.12299656 -0.44562522 7.5578668e-39
1.1735666 -0.074302532 -0.46091855 7.1890843e-39
1.2348154 -0.044112816 -0.44636345 7.0057763e-39
1.3370458 -0.02187953 -0.44377407 5.0707568e-39
1.4423194 -0.024566328 -0.423388 5.4395394e-39
1.5523227 -0.025071025 -0.43929636 5.4395394e-39
1.6538944 -0.027729644 -0.4494108 5.531735e-39
1.749842 -0.031955361 -0.44958544 5.7161262e-39
1.848973 -0.041541535 -0.44122624 5.7164864e-39
1.9474179 -0.040600248 -0.44359982 5.7172052e-39
2.0508604 -0.042759273 -0.44478178 5.9012378e-39
2.1499135 -0.037746686 -0.45099083 5.9015965e-39
2.2498937 -0.043816198 -0.44222343 6.0859878e-39
2.352746 -0.048870847 -0.43249878 6.270379e-39
2.4458835 -0.028881136 -0.42405957 6.3622145e-39
2.5185955 -0.011235421 -0.40591925 6.3618586e-39
1.3625367 0.020893814 -0.46943539 4.9785612e-39
1.4418854 0.049105376 -0.4640162 5.0707568e-39
1.5484111 0.053169329 -0.4674449 5.1629525e-39
1.6496726 0.054288264 -0.47190714 5.3473437e-39
1.7445619 0.049807139 -0.47383747 5.4398995e-39
1.8463832 0.046416834 -0.48340353 5.5320951e-39
1.9411016 0.03207466 -0.49169901 5.4406184e-39
2.0466306 0.0085486658 -0.49617761 5.532814e-39
2.1627042 0.0067900396 -0.49505663 5.6250096e-39
2.2611029 0.026661383 -0.48310974 5.9015965e-39
2.3520091 0.051771969 -0.46939468 6.085629e-39
2.4483531 0.044986382 -0.4485119 6.270379e-39
2.5459557 0.046605296 -0.43478817 6.5466072e-39
2.6425903 0.048941784 -0.43324614 6.9153897e-39
2.7481542 0.048821334 -0.43614152 6.7317159e-39
2.8527586 0.049458731 -0.44219235 6.7313572e-39
2.9497311 0.050708987 -0.44852176 6.5469659e-39
3.0496976 0.056548905 -0.45828268 6.6391615e-39
3.1548727 0.061473448 -0.4657194 6.7313572e-39
3.2465048 0.066799514 -0.46701026 6.7313572e-39
3.3440461 0.067623928 -0.46448192 6.8235528e-39
3.4490907 0.064272411 -0.46909082 6.7317173e-39
3.5453491 0.07530988 -0.47928673 6.8239129e-39
3.6458337 0.082653664 -0.48779809 6.6402405e-39
3.7543988 0.075769551 -0.49284726 8.4863097e-39
3.8520508 0.074667208 -0.49772781 9.5000973e-39
3.942765 0.064254388 -0.49766803 2.2148517e-39
4.0444732 0.074683994 -0.49590513 2.9513364e-39
4.1563144 0.088747792 -0.49462867 2.582914e-39
4.2239304 0.097284518 -0.48949924 2.9516965e-39
1.569002 0.10161823 -0.49860364 5.0707568e-39
1.6702754 0.10402946 -0.49685076 5.2551481e-39
1.7436007 0.10904958 -0.49602786 5.2551481e-39
1.8153772 0.10290834 -0.49758625 5.3473437e-39
2.3867407 0.10905237 -0.49541831 6.3618544e-39
2.4595284 0.14794321 -0.48577133 6.4540514e-39
2.5486524 0.14830282 -0.46979156 6.5466058e-39
2.6355131 0.1566619 -0.46028587 6.5469659e-39
2.7472894 0.15070978 -0.4612163 6.8235528e-39
2.8448794 0.15291563 -0.46766654 6.4544116e-39
2.9488399 0.14685638 -0.47588345 6.4547703e-39
3.0508211 0.13938184 -0.48225388 6.6391615e-39
3.1493258 0.14476186 -0.48860699 6.7313572e-39
3.2500889 0.12973753 -0.48528558 6.7313572e-39
3.3476048 0.14360809 -0.48711741 6.7317173e-39
3.445766 0.15525627 -0.48989758 6.8235528e-39
3.543267 0.13928582 -0.4902682 6.8239115e-39
3.6434507 0.12534967 -0.49141401 6.5476862e-39
3.7375162 0.12262019 -0.49362919 7.2877652e-39
3.8211238 0.11556271 -0.49702311 1.1068862e-38
4.2752876 0.11286204 -0.49561778 2.8591407e-39
4.3456984 0.14278378 -0.48162267 2.6751096e-39
4.4554343 0.16215859 -0.46354133 2.5825538e-39
4.5502458 0.15130754 -0.43294573 2.5829126e-39
4.6215796 0.18052673 -0.4120945 2.0297388e-39
2.258111 0.29347304 -0.4928171 6.2703776e-39
2.3627782 0.26510963 -0.48156163 6.5462442e-39
2.432771 0.23919493 -0.46650329 6.6388e-39
2.5445778 0.2491136 -0.45866245 6.7313558e-39
2.6498625 0.23379503 -0.46618807 6.7313572e-39
2.7475045 0.24801451 -0.47439516 6.8235528e-39
2.8543091 0.25192231 -0.48559913 6.9157484e-39
2.9486444 0.23790424 -0.48991379 7.0072252e-39
3.0534749 0.21741317 -0.49038753 6.730997e-39
3.1536052 0.21514893 -0.49585733 6.7313572e-39
3.2021754 0.21387711 -0.49890277 6.7313572e-39
3.3776462 0.2225334 -0.49904719 6.8235528e-39
3.4534619 0.22894369 -0.49802116 6.9153883e-39
3.5294747 0.22554544 -0.49897799 6.9153869e-39
4.5633855 0.21061042 -0.47391579 2.6747467e-39
4.6559072 0.23306175 -0.45571879 2.5829098e-39
4.7434287 0.25322035 -0.45413634 2.8594967e-39
4.8499212 0.27173382 -0.45743054 3.5048633e-39
4.9436154 0.28065917 -0.44667155 3.5974176e-39
5.0416131 0.29005885 -0.43630877 3.9658414e-39
5.1460328 0.2966789 -0.42311063 4.7037666e-39
6.6579695 0.26697433 -0.40816391 3.8750877e-39
6.7076201 0.2834956 -0.41606125 2.4003178e-39
6.8988209 0.28162399 -0.41796839 3.7825334e-39
6.9016938 0.27178445 -0.40818563 3.9672847e-39
7.0652184 0.28839454 -0.41783485 3.5985008e-39
7.2359972 0.29015851 -0.41228849 4.059479e-39
7.3468761 0.28931546 -0.4027178 4.2442304e-39
2.1843915 0.32841524 -0.49478289 6.3614943e-39
2.2527442 0.34770593 -0.48712784 6.5462457e-39
2.3455064 0.34764856 -0.47005859 6.5469645e-39
2.4473448 0.34846327 -0.46151873 6.7313558e-39
2.5476918 0.34793431 -0.46099555 6.7313558e-39
2.6467052 0.34949547 -0.46115601 6.8235514e-39
2.7504723 0.35292554 -0.46818146 7.0079427e-39
2.8489287 0.35354728 -0.47672316 6.7317159e-39
2.9430954 0.36038277 -0.48398179 6.8239115e-39
3.0484648 0.37731206 -0.48952439 6.7313558e-39
3.1444709 0.3873499 -0.4960784 6.8235514e-39
4.6669917 0.31690514 -0.49249411 2.9509706e-39
4.7525401 0.3382107 -0.48471648 3.504143e-39
4.8521838 0.36960489 -0.4743785 3.5967002e-39
4.9510894 0.36547124 -0.4563629 4.4271783e-39
5.0475683 0.35309634 -0.45728222 5.8104715e-39
5.1578403 0.35380173 -0.458877 6.4561996e-39
5.2523165 0.35268468 -0.45435241 7.0097335e-39
5.3497281 0.3677066 -0.44022667 6.9182596e-39
5.4449077 0.36127853 -0.43090713 4.6133716e-39
5.549397 0.35780972 -0.4215917 3.9676421e-39
5.6496406 0.3644239 -0.41834912 4.244229e-39
5.7418351 0.36116788 -0.41578007 2.95313e-39
5.8472185 0.36522588 -0.41329551 2.5843447e-39
5.929656 0.35753179 -0.41484076 2.4921491e-39
6.0306082 0.38105935 -0.41756809 3.4144641e-39
6.264926 0.37777418 -0.42475444 6.8264199e-39
6.3026328 0.39367491 -0.42731091 6.3654403e-39
6.5450077 0.39464337 -0.43430138 1.1159973e-38
6.6143312 0.38451749 -0.43890142 1.2542908e-38
6.8558235 0.39358366 -0.44503528 1.2081931e-38
7.0754008 0.30924717 -0.43887401 8.1171503e-39
7.2685456 0.31771013 -0.44038948 7.8398501e-39
7.3743429 0.3392911 -0.44462857 9.7763213e-39
7.4599419 0.3421647 -0.44654909 9.4075416e-39
7.5377383 0.36123672 -0.45079195 1.1620235e-38
7.6503477 0.34710184 -0.42696398 8.9462033e-39
7.7401042 0.3760004 -0.42985046 1.2080852e-38
7.8428512 0.38522953 -0.42423618 1.2080852e-38
7.934041 0.39256066 -0.40627813 1.2265602e-38
2.2804909 0.40945455 -0.49103433 6.7302782e-39
2.351995 0.42880702 -0.48031366 6.6388014e-39
2.4489479 0.45015961 -0.47510946 6.8231927e-39
2.548259 0.45257831 -0.469448 6.8235528e-39
2.6466298 0.4427619 -0.46970701 6.9157484e-39
2.7465968 0.44898626 -0.47484082 7.1919752e-39
2.8530273 0.44755363 -0.4806205 7.1001397e-39
2.9474659 0.44689929 -0.48420703 6.915747e-39
3.0503891 0.44641218 -0.48953179 6.8239115e-39
3.1555314 0.44984749 -0.49038416 6.8242703e-39
3.2469873 0.44744045 -0.4888446 6.8246304e-39
3.346117 0.44553357 -0.49077478 6.7324348e-39
3.4469125 0.45361647 -0.49473861 6.733511e-39
3.5312264 0.46003065 -0.4975107 6.7335124e-39
4.6815805 0.46802843 -0.49300066 7.1919668e-39
4.7522025 0.47534683 -0.47737229 5.9916187e-39
4.8580527 0.44752866 -0.4581103 3.7778474e-39
4.9168358 0.44560111 -0.42107049 3.3193916e-39
5.7555118 0.40516776 -0.40682328 1.1435838e-38
5.9817023 0.4189201 -0.41202939 9.4997274e-39
6.0450969 0.41247284 -0.41857132 4.1520249e-39
6.1240258 0.44436309 -0.40636668 1.0052542e-38
6.2596836 0.44519803 -0.41834661 1.2542183e-38
6.3243842 0.41327921 -0.42878565 5.8122637e-39
6.4424653 0.46282893 -0.41818917 1.1988295e-38
6.5591559 0.45388556 -0.4257201 1.1066699e-38
6.6506772 0.46340463 -0.43489769 1.3279751e-38
6.7203531 0.48763299 -0.40715584 9.6834082e-39
6.8495688 0.45251864 -0.43870601 1.2357799e-38
6.9427423 0.48374641 -0.43564904 1.3463786e-38
7.0556526 0.46304321 -0.44580626 1.2449993e-38
7.1389976 0.45210487 -0.44693869 1.2357799e-38
7.2529645 0.44796538 -0.4524667 1.1897181e-38
7.3602486 0.47033682 -0.45440912 1.1804265e-38
7.4631348 0.46077085 -0.45574275 1.171243e-38
7.5509214 0.45858631 -0.45419222 1.1988656e-38
7.6491442 0.45495242 -0.4479714 1.1988299e-38
7.7474465 0.45932549 -0.43079621 1.2080853e-38
7.8454747 0.43907213 -0.43004808 1.2080853e-38
7.9462028 0.42664111 -0.41968876 1.2081212e-38
8.016366 0.41975829 -0.40760905 1.2265602e-38
2.4998009 0.50235391 -0.49766308 6.8235528e-39
2.5610082 0.5075717 -0.49029171 6.8235528e-39
2.6473835 0.51779276 -0.48593569 6.9157484e-39
2.7478273 0.5323379 -0.48956537 6.9157484e-39
2.8472238 0.5330832 -0.49344486 7.3770853e-39
2.9210315 0.53268141 -0.49827731 8.7603813e-39
3.1964059 0.50400192 -0.49800387 6.9161086e-39
3.2564404 0.51134139 -0.49016324 7.0083042e-39
3.3464725 0.52187645 -0.49022025 7.0083042e-39
3.4449131 0.53739655 -0.49279574 7.0079441e-39
3.5599711 0.56334788 -0.49694112 6.915747e-39
3.6033521 0.59416038 -0.49902555 7.284531e-39
4.6846552 0.58691913 -0.48723561 4.9742284e-39
4.7375336 0.54866552 -0.44920707 8.2824474e-39
4.8216028 0.5137341 -0.40991724 1.2878161e-38
7.0646844 0.50242591 -0.42801732 1.3924407e-38
7.1743731 0.50677055 -0.42085111 1.4016964e-38
7.2506208 0.51042318 -0.41312796 1.3924769e-38
7.3368025 0.51116759 -0.41277814 1.3371594e-38
7.4587936 0.50893313 -0.42497477 1.2541834e-38
7.5407419 0.5090766 -0.4187879 1.2264887e-38
7.65271 0.50743145 -0.41580126 1.1988299e-38
7.7200089 0.50448179 -0.40645579 1.2172689e-38
1.7846625 0.69718766 -0.49527621 5.9927131e-39
1.8558077 0.68660676 -0.45580685 6.8224738e-39
1.9432862 0.67764837 -0.45155054 7.0072238e-39
2.0478494 0.68605226 -0.45546278 7.1912563e-39
2.1502154 0.68818963 -0.47348541 7.1912563e-39
2.2490356 0.6844058 -0.4811734 7.1912563e-39
2.3449357 0.68674642 -0.48358873 7.3756476e-39
2.4359179 0.69372445 -0.49019742 7.3756476e-39
2.5084708 0.69951552 -0.49938905 7.3756476e-39
4.6881285 0.65542585 -0.45979479 5.1586197e-39
4.7068024 0.62915957 -0.41839409 1.002911e-38
1.7850702 0.7246539 -0.4795408 6.0849088e-39
1.8338089 0.7477957 -0.44163397 6.6384413e-39
1.9033377 0.79750913 -0.40754986 7.1001397e-39
2.0808589 0.70312291 -0.40826014 7.6525946e-39
2.1565108 0.71076888 -0.42398068 7.560399e-39
2.2478864 0.71847796 -0.43343702 7.6525932e-39
2.3482342 0.72775531 -0.43805149 7.7451476e-39
2.4487271 0.73604035 -0.44722298 7.6529519e-39
2.5461969 0.74915779 -0.45731103 7.6536722e-39
2.638118 0.75145006 -0.4775598 7.7458678e-39
2.7387829 0.76796848 -0.49053919 7.9299004e-39
2.8160808 0.79207945 -0.49697348 8.6674668e-39
3.3302317 0.79173625 -0.4996154 7.3767266e-39
4.684669 0.756661 -0.46119943 3.2261184e-39
4.7097878 0.73506057 -0.41654518 2.3956402e-39
1.8682674 0.83939886 -0.47339338 6.0859878e-39
1.9412429 0.85845762 -0.43303704 6.8235528e-39
2.0087254 0.89443475 -0.40925819 7.1923353e-39
2.5893724 0.80986571 -0.40155613 7.7458692e-39
2.6489594 0.81199461 -0.43067941 7.4692809e-39
2.7496204 0.8264761 -0.46012145 7.1926955e-39
2.8477144 0.843705 -0.47650304 8.022096e-39
2.9542959 0.88532925 -0.48280635 7.4689222e-39
3.3851128 0.80356336 -0.4993141 7.3767266e-39
4.6731367 0.85161662 -0.45127079 4.6050815e-39
1.8958883 0.9051618 -0.49484628 5.8094009e-39
1.9542176 0.94280642 -0.47606277 6.270379e-39
2.0406539 0.95614284 -0.43317464 7.0083028e-39
2.1391428 0.98557997 -0.40415484 7.5618353e-39
2.2460313 0.98741806 -0.40311593 1.1157466e-38
2.3170867 0.99713719 -0.40278518 7.7451504e-39
2.9730356 0.90197915 -0.47178069 7.6533135e-39
3.0602005 0.92015308 -0.48834187 7.4692823e-39
3.1510677 0.94576919 -0.49547163 7.5611178e-39
3.2192588 0.96972632 -0.49922955 7.6536736e-39
4.5984926 0.98712468 -0.49752629 1.8449888e-39
4.6435556 0.94342268 -0.45563883 3.9607981e-39
4.712697 0.98628628 -0.41365469 6.3546335e-39
1.9840062 1.0195084 -0.49186382 5.9937921e-39
2.0547023 1.0486426 -0.47246632 6.4547703e-39
2.1373312 1.0568448 -0.43033943 7.10086e-39
2.2460721 1.0442952 -0.41243684 9.0387633e-39
2.3489289 1.0353718 -0.4108313 9.3139138e-39
2.4405959 1.0768094 -0.41384289 7.561478e-39
4.6549225 1.0118163 -0.48300311 2.9513364e-39
4.7536559 1.0240527 -0.44928375 3.7800138e-39
4.8395004 1.0533901 -0.45084691 4.7019729e-39
4.9386816 1.0804378 -0.44660097 6.3618558e-39
2.0569489 1.1483637 -0.48938799 5.9019566e-39
2.1448817 1.1499424 -0.4601084 6.5476862e-39
2.2362137 1.1613601 -0.43431512 7.0097419e-39
2.3519812 1.1635501 -0.43304086 6.4648274e-39
2.4523377 1.1437027 -0.43369505 9.7831666e-39
2.5505009 1.1415319 -0.42490947 7.9302605e-39
2.6248474 1.182946 -0.42557859 8.1146504e-39
4.9625287 1.1094168 -0.49155569 4.1509613e-39
5.0577474 1.1204406 -0.45310283 7.1005026e-39
5.145515 1.1492834 -0.44501209 5.3484269e-39
5.2452245 1.1789265 -0.43880084 3.9662128e-39
5.306941 1.196624 -0.43253386 3.8736598e-39
2.0576859 1.2524213 -0.49080279 5.7175682e-39
2.1456077 1.2483857 -0.46885258 6.1792638e-39
2.24264 1.2499479 -0.44632608 6.8246318e-39
2.3490415 1.2541045 -0.43827742 7.6565337e-39
2.4411516 1.2545151 -0.43837079 7.5690114e-39
2.5358033 1.2674855 -0.44793999 6.1817819e-39
2.6652973 1.2537212 -0.45645377 7.3781657e-39
2.7418394 1.2707466 -0.45116544 8.0224561e-39
2.8058681 1.2965341 -0.43715486 8.2997591e-39
5.3558111 1.2122837 -0.45505133 3.8743773e-39
5.445919 1.2358179 -0.43591607 3.597433e-39
5.5566502 1.2681658 -0.45927972 3.6899888e-39
5.6349096 1.286834 -0.41858694 3.4134061e-39
1.9927322 1.361038 -0.49647731 5.6246523e-39
2.0481699 1.3525256 -0.48499492 5.7172095e-39
2.1449127 1.3541085 -0.46814474 5.9948753e-39
2.2418892 1.3480132 -0.45238715 6.5484079e-39
2.3546348 1.3457074 -0.44521347 7.5632674e-39
2.4480903 1.3516048 -0.43931866 7.3788734e-39
2.5473475 1.3504511 -0.43005845 7.7462336e-39
2.6426411 1.3371013 -0.43314481 7.9306248e-39
2.7515776 1.3404834 -0.44537708 8.1146546e-39
2.8426843 1.355037 -0.44650543 8.0235351e-39
5.6856093 1.3054413 -0.46865031 3.5977946e-39
5.7566705 1.3262866 -0.45264021 3.5056003e-39
5.8534417 1.3550593 -0.44898534 3.5977974e-39
5.9481711 1.3849905 -0.45309359 3.4137662e-39
6.0211105 1.3952936 -0.41109648 3.321572e-39
1.9836777 1.4629333 -0.49241179 5.532814e-39
2.049165 1.4518509 -0.47026798 5.809761e-39
2.1462288 1.4518676 -0.44679266 6.1792652e-39
2.2395749 1.4432248 -0.44627935 6.5476904e-39
2.3504758 1.4477994 -0.45349756 6.7328005e-39
2.4484761 1.4505275 -0.45388004 8.5777851e-39
2.5538673 1.447752 -0.43792635 7.3785287e-39
2.6446269 1.4527173 -0.41561818 8.1160993e-39
2.7483478 1.4501711 -0.41330153 7.1945087e-39
2.8453467 1.4702759 -0.41909242 9.5926783e-39
2.9292681 1.4911896 -0.42735118 1.0792659e-38
5.9899669 1.4024837 -0.4709205 3.321572e-39
6.0567932 1.4221717 -0.45766592 3.229375e-39
6.1551218 1.4528475 -0.45093918 3.1375409e-39
6.24193 1.4802117 -0.44187355 3.0453453e-39
6.3207698 1.4845086 -0.40575549 3.2297393e-39
1.9685662 1.5590574 -0.47794521 5.6246509e-39
2.0453227 1.5530909 -0.43792877 5.9945124e-39
2.1407347 1.5451105 -0.4225699 6.6402405e-39
2.2452288 1.5478885 -0.4195087 7.1937759e-39
2.3489397 1.5639615 -0.42685896 7.2859715e-39
2.4511256 1.5606016 -0.44446757 7.3788888e-39
2.5463624 1.5587223 -0.44124532 7.1944989e-39
2.6469612 1.5515783 -0.43571067 7.6558372e-39
2.7408912 1.5509655 -0.41425142 9.6841411e-39
2.8269496 1.5429287 -0.40786615 9.4079213e-39
2.9654167 1.5165751 -0.41717526 5.9059405e-39
3.0471137 1.545958 -0.41978824 6.5505869e-39
3.1412334 1.5783604 -0.4354755 7.6565687e-39
3.2058437 1.5969783 -0.45784977 2.4035688e-39
4.5742717 1.5197377 -0.44425404 6.0881458e-39
4.6391244 1.5396219 -0.45842901 6.1803414e-39
4.7590175 1.5715088 -0.46338224 6.6416797e-39
4.8347421 1.5958244 -0.48819777 4.7977685e-39
6.2698016 1.5026721 -0.46424988 2.7687584e-39
6.3530688 1.5266042 -0.45636624 2.9531496e-39
6.4479876 1.5529149 -0.44445559 2.9531524e-39
6.538506 1.5767115 -0.43516541 3.1375451e-39
6.6342683 1.5948087 -0.41467836 2.9535168e-39
1.9689429 1.6435088 -0.4635675 5.7172052e-39
2.0210736 1.6441985 -0.41379634 5.9941523e-39
2.3951721 1.6017454 -0.40427184 7.3781671e-39
2.4570994 1.6120862 -0.41250294 7.4703628e-39
2.5445356 1.6252797 -0.41369092 7.5629199e-39
2.6592026 1.6175705 -0.42233661 7.5643605e-39
2.7294331 1.6224037 -0.42152789 8.116814e-39
2.8841722 1.6073271 -0.4119013 3.4148509e-39
2.9467149 1.6342691 -0.41002312 6.2732839e-39
3.0355446 1.6761836 -0.41274795 1.0144779e-38
3.1544902 1.6462296 -0.41411024 5.5349986e-39
3.2525494 1.6354861 -0.43429849 3.1375451e-39
3.3433614 1.6736395 -0.44926679 3.1378996e-39
3.4034848 1.6954325 -0.466436 4.6130283e-39
3.7942772 1.6503799 -0.47694981 6.270728e-39
3.8191161 1.6808565 -0.45445418 5.9015895e-39
3.9166677 1.6953837 -0.43364024 6.7288278e-39
4.884932 1.6088746 -0.49328059 4.7974084e-39
4.9174027 1.6124746 -0.46818513 7.6561945e-39
5.0367184 1.6443335 -0.47948438 8.0249771e-39
5.1366744 1.6732428 -0.48172098 7.1033809e-39
5.2046142 1.6916378 -0.4955281 7.6565533e-39
6.5588579 1.6090164 -0.48488027 2.953151e-39
6.6529322 1.6248986 -0.45944494 3.2297407e-39
6.7513585 1.6481355 -0.44555059 3.1379052e-39
6.8501139 1.675261 -0.43477508 3.0460711e-39
6.9195509 1.6950021 -0.42420769 3.0460725e-39
1.9844669 1.7311244 -0.48065832 5.532814e-39
2.0188146 1.7546599 -0.43477434 5.9937921e-39
3.0768633 1.7146854 -0.41857523 1.0790861e-38
3.1460798 1.7378113 -0.41688311 1.0790861e-38
3.2414088 1.7689763 -0.41075024 8.0264428e-39
3.3391705 1.7641026 -0.41494316 9.6852565e-39
3.4543428 1.7288119 -0.45155388 3.7829089e-39
3.5467067 1.769069 -0.46251601 4.7966993e-39
3.6103017 1.7915102 -0.480896 6.2721867e-39
3.7845128 1.7319877 -0.40814856 3.1364493e-39
3.8385351 1.7462233 -0.44627228 5.4416946e-39
3.9327254 1.7270582 -0.42858368 5.9005077e-39
5.2805858 1.7163306 -0.48750588 7.4725222e-39
5.488966 1.7761409 -0.49884486 7.1959353e-39
6.8817434 1.7055902 -0.48143786 3.2297393e-39
6.9581256 1.7183938 -0.45053047 3.2301023e-39
7.0451274 1.7477975 -0.44799373 3.322658e-39
7.1445384 1.7815056 -0.44499385 3.3226594e-39
7.2339578 1.7981119 -0.40696433 3.0460725e-39
2.0299811 1.8110135 -0.43309113 5.9937921e-39
3.1972966 1.8025943 -0.44509697 5.3516821e-39
3.2633655 1.8299819 -0.43112874 6.7346082e-39
3.3484728 1.856676 -0.42011195 7.3807077e-39
3.439502 1.873819 -0.41107193 9.6863383e-39
3.5910633 1.8095968 -0.44033608 3.8740297e-39
3.6623342 1.8229041 -0.46303332 5.9030455e-39
3.7501054 1.8597618 -0.46416748 6.3643781e-39
3.8678455 1.8523268 -0.46686226 5.9952299e-39
3.9205043 1.8775754 -0.4290542 5.3505793e-39
7.1750073 1.8041611 -0.47610572 3.5992449e-39
7.2463112 1.8231341 -0.46093053 3.2304638e-39
7.3431115 1.8527849 -0.45015496 3.1382682e-39
7.4361091 1.8829225 -0.44332698 3.0464327e-39
3.3813872 1.9159144 -0.4353129 5.1679957e-39
3.4499378 1.9583393 -0.4374539 4.7066617e-39
3.5540032 1.9508132 -0.41511771 5.0747379e-39
3.6467793 1.9721041 -0.41988057 6.7342537e-39
3.7541394 1.9633261 -0.43731463 6.8278898e-39
3.8707483 1.944883 -0.43798068 6.36509e-39
3.9261 1.9426244 -0.42028341 7.56255e-39
7.4791632 1.9130131 -0.47739741 3.3226594e-39
7.554378 1.9280717 -0.44510496 3.2308239e-39
7.6505885 1.966071 -0.44419837 3.2311841e-39
7.7317228 1.9887688 -0.42099983 3.2311855e-39
3.4895849 2.0122769 -0.46061268 3.9694526e-39
3.5439966 2.053921 -0.4525592 4.5229851e-39
3.652534 2.0513694 -0.42128992 6.5498498e-39
3.7514045 2.0520799 -0.42209604 8.6699849e-39
3.8564429 2.0455534 -0.43357614 7.101939e-39
3.9549768 2.0552402 -0.42594284 9.4064612e-39
4.0287256 2.0560925 -0.40960592 9.9599923e-39
7.761673 2.0099137 -0.45234746 3.323021e-39
7.8532305 2.0394504 -0.44990367 3.3233797e-39
7.9485645 2.0703516 -0.44146568 3.2315442e-39
8.0162153 2.0937467 -0.45675498 3.3233811e-39
3.588515 2.1029704 -0.46848783 4.5233438e-39
3.6429884 2.1494513 -0.461476 4.1549214e-39
3.7531857 2.1504111 -0.43169594 7.8420249e-39
3.8506823 2.1517043 -0.4227941 1.1251816e-38
3.9596767 2.1430223 -0.41799816 1.0236223e-38
4.0221376 2.1441488 -0.4044261 1.0327696e-38
8.0595598 2.1079729 -0.44176003 3.2315456e-39
8.162714 2.1416886 -0.44913131 3.2315456e-39
8.2469568 2.1688843 -0.43415502 3.2315456e-39
8.3157339 2.1929693 -0.44982105 3.3237412e-39
3.7457561 2.2408366 -0.46677968 4.2474758e-39
3.8588128 2.2450314 -0.43835321 1.0239107e-38
3.9607913 2.2535992 -0.41719228 1.1896465e-38
4.0148311 2.2210903 -0.40330067 1.1619159e-38
8.3523006 2.2086384 -0.45777574 3.3233811e-39
8.4579163 2.2426777 -0.4453516 3.2315456e-39
8.5552893 2.2767246 -0.44221029 3.3237412e-39
8.6038084 2.2999704 -0.4840287 3.599968e-39
3.8656261 2.3306577 -0.47117952 5.1697908e-39
3.9642155 2.344281 -0.43305591 1.1713154e-38
4.0111175 2.3827233 -0.41438225 1.3002451e-38
8.6520042 2.3128543 -0.44923967 3.4155767e-39
8.7460318 2.3470099 -0.45057184 3.5077724e-39
8.8423767 2.3837993 -0.45372492 3.5999666e-39
3.9762583 2.4193237 -0.46840629 7.65907e-39
4.03723 2.451009 -0.43436939 1.171243e-38
8.9539576 2.4242606 -0.44558969 3.7843578e-39
9.0544958 2.4633734 -0.44779155 3.8765535e-39
9.126112 2.4922564 -0.46072862 3.8765521e-39
4.0830297 2.5123692 -0.45740834 9.409338e-39
4.1423421 2.5617399 -0.44844896 1.1067772e-38
9.1737165 2.5085711 -0.44001192 3.8765521e-39
9.2650776 2.5452497 -0.44767636 3.8765521e-39
9.3637152 2.5841606 -0.44566479 3.8765521e-39
4.1870866 2.6140947 -0.4790166 9.6862795e-39
4.2532105 2.6612759 -0.44646445 1.4294245e-38
8.9790154 2.6708562 -0.41590893 7.4739669e-39
9.0339594 2.667572 -0.45859483 6.8275171e-39
9.1267672 2.6619456 -0.45260012 6.5509344e-39
9.2233896 2.6784971 -0.44569805 6.2739874e-39
9.4596081 2.6304927 -0.46143961 3.692158e-39
9.5447807 2.6729479 -0.45308313 3.599961e-39
9.606535 2.6927505 -0.40877533 3.5999596e-39
3.9613485 2.7448401 -0.49712381 1.3830987e-38
4.0553322 2.7865801 -0.45450994 1.22608e-38
4.1096964 2.7957513 -0.44760594 1.3458243e-38
4.2922544 2.7102556 -0.46676737 1.3463401e-38
4.334857 2.7576568 -0.44521958 1.5030354e-38
8.6867771 2.7795618 -0.40097171 8.1193349e-39
8.7483845 2.7740273 -0.40381539 8.0271393e-39
8.849493 2.7869418 -0.41487139 7.7509111e-39
8.9601278 2.7552867 -0.41174707 8.2118893e-39
9.0517025 2.7401698 -0.45050633 8.4877559e-39
9.1273499 2.7779031 -0.47106695 7.8423865e-39
9.368516 2.7071261 -0.45942599 5.720815e-39
9.4123259 2.7197855 -0.40730458 5.3520325e-39
9.5856533 2.730365 -0.4898743 3.6003183e-39
9.6441021 2.7463596 -0.44016552 3.4159256e-39
4.0692406 2.8114724 -0.42595366 1.382883e-38
4.1493053 2.8231559 -0.44219202 1.5395412e-38
4.2529788 2.8453567 -0.44849059 1.6778698e-38
4.3524337 2.8368278 -0.45073643 1.613625e-38
8.7609005 2.8032696 -0.41703218 5.1697936e-39
8.8648338 2.817359 -0.43052125 4.4322286e-39
8.9740839 2.8229218 -0.45470941 8.1193335e-39
9.0402136 2.8125103 -0.46943879 5.9059195e-39
9.1336269 2.8105252 -0.48183018 6.5512889e-39
6.1709452 -2.303133 -0.30264896 1.0510264e-38
6.2439694 -2.3141444 -0.31163427 1.0233309e-38
6.3448772 -2.3329427 -0.31117648 1.1339646e-38
6.4661026 -2.3395414 -0.32273012 1.143076e-38
6.567275 -2.3569565 -0.31667751 1.3090636e-38
6.6320863 -2.3693061 -0.31021807 1.2999156e-38
6.7912679 -2.3093011 -0.30367967 1.7517086e-39
11.360978 -2.3061411 -0.39328933 1.3457628e-38
11.462161 -2.3101439 -0.38025603 1.3181394e-38
11.517781 -2.3130503 -0.38211015 1.3089202e-38
11.614357 -2.3156848 -0.37692696 1.308956e-38
11.72356 -2.3205419 -0.38892794 1.2905526e-38
5.6749287 -2.2039595 -0.31109536 6.9153687e-39
5.7563972 -2.2198133 -0.32133344 5.7161094e-39
5.8594985 -2.2291081 -0.33810976 8.204674e-39
5.9585214 -2.2353461 -0.34774625 8.9426005e-39
6.0493026 -2.2458355 -0.33850813 6.6380601e-39
6.1380448 -2.2679186 -0.32637703 7.4670921e-39
6.2391243 -2.2494636 -0.32913202 8.1113825e-39
6.3222656 -2.247026 -0.32218501 8.9414949e-39
6.4478626 -2.2437134 -0.32087958 6.9142785e-39
6.5453939 -2.2431786 -0.31967744 3.6885272e-39
6.6591668 -2.2368798 -0.3245298 2.489275e-39
6.7365074 -2.25507 -0.3100093 1.9357425e-39
10.548933 -2.2021799 -0.34235424 1.5117508e-38
10.692735 -2.216774 -0.30845234 1.3088831e-38
10.758723 -2.2304544 -0.35691062 1.1982493e-38
10.885349 -2.2410021 -0.31400868 1.2074678e-38
10.922348 -2.2486191 -0.3466011 1.3365422e-38
11.025385 -2.2578979 -0.33395743 1.216688e-38
11.147954 -2.2725513 -0.34735602 1.2720416e-38
11.23728 -2.2680478 -0.327402 1.2166882e-38
11.343324 -2.2725313 -0.33811423 1.2444188e-38
11.452692 -2.2454264 -0.33535296 1.1614793e-38
11.547643 -2.2507324 -0.35977477 1.1154179e-38
11.647669 -2.2803111 -0.37802669 1.1799184e-38
5.3636503 -2.1115339 -0.322175 6.2667791e-39
5.4573145 -2.1289346 -0.3384968 6.3578971e-39
5.5488806 -2.1437969 -0.35297909 5.9891132e-39
5.6483812 -2.1582983 -0.36259159 7.2787744e-39
5.7477198 -2.1710825 -0.37275389 9.5811456e-39
5.8417463 -2.1821396 -0.38053766 1.0320509e-38
5.9595466 -2.162766 -0.39431316 3.4101635e-39
6.0428195 -2.1492078 -0.36678806 7.7440742e-39
6.1331382 -2.1434247 -0.32863313 6.8231703e-39
6.2362027 -2.1614158 -0.31893009 5.6246299e-39
6.3392944 -2.1536078 -0.32105878 3.5963386e-39
6.4926848 -2.1187963 -0.32779518 3.5959827e-39
6.5634027 -2.1418481 -0.32567286 3.2272002e-39
6.6518049 -2.1505432 -0.31277323 2.396722e-39
6.7204084 -2.1543143 -0.30051106 1.6595157e-39
9.6417427 -2.1031823 -0.31293631 1.5947993e-38
9.7572565 -2.1119602 -0.31431791 1.5855796e-38
9.8785477 -2.1192369 -0.32058597 1.5487012e-38
9.953969 -2.1210542 -0.3302024 1.2074697e-38
10.051558 -2.1237228 -0.35520852 8.2939633e-39
10.165883 -2.1478882 -0.33355945 1.2627868e-38
10.221602 -2.133847 -0.39808589 3.8685857e-39
10.358672 -2.1744175 -0.34662646 1.2443118e-38
10.46514 -2.1846876 -0.33207351 1.1704826e-38
10.53172 -2.1985867 -0.36458242 1.1521522e-38
11.081128 -2.105458 -0.36761528 8.8496762e-39
11.157604 -2.1280653 -0.34586585 9.4024871e-39
11.253713 -2.1544852 -0.34090456 9.5872287e-39
11.35345 -2.1790442 -0.36025819 9.9556511e-39
11.40106 -2.1991422 -0.32888535 1.0509179e-38
4.9696074 -2.0134473 -0.31339672 9.2199189e-39
5.0601997 -2.0268021 -0.32620004 5.3477025e-39
5.1487284 -2.035732 -0.34833887 3.3183196e-39
5.2504148 -2.0628827 -0.34921047 3.8711333e-39
5.3445773 -2.0704963 -0.37393591 2.8559023e-39
5.4465561 -2.0746353 -0.39021659 1.6580808e-39
5.5460758 -2.0778832 -0.39467514 1.6580808e-39
5.6390686 -2.0802002 -0.39859262 1.6588025e-39
5.7613726 -2.0214486 -0.39892584 2.9466714e-39
5.8762088 -2.0363488 -0.39203128 7.2762787e-39
5.9584985 -2.0399158 -0.36614633 5.9902118e-39
6.0438442 -2.0750258 -0.35600647 4.886374e-39
6.1501899 -2.0868924 -0.32824898 6.5469575e-39
6.2897248 -2.0526023 -0.32662234 4.7026876e-39
6.3073382 -2.0282705 -0.327537 3.8732856e-39
6.4654694 -2.0524054 -0.32330102 4.3339065e-39
6.5533295 -2.058228 -0.31477395 3.8725696e-39
6.6345739 -2.0885036 -0.31101474 3.2272002e-39
6.974493 -2.0043392 -0.30181095 9.4975666e-39
7.0744667 -2.01267 -0.3112441 1.069683e-38
7.1699367 -2.0346668 -0.3102648 1.1341841e-38
7.2631416 -2.0313897 -0.31430081 1.2633304e-38
7.3051949 -2.0379159 -0.30909643 1.4016597e-38
9.0520658 -2.0202868 -0.31336042 8.4798161e-39
9.1596889 -2.0205066 -0.33824769 6.5429806e-39
9.2552214 -2.0256035 -0.34704497 6.2660322e-39
9.3620052 -2.033186 -0.35560313 5.1596902e-39
9.4687595 -2.0531619 -0.34693196 7.1876298e-39
9.5443935 -2.0640998 -0.34963027 7.0961502e-39
9.6385574 -2.0642877 -0.36145461 5.067489e-39
9.7459021 -2.0814173 -0.35141024 5.6210173e-39
9.8452148 -2.0836794 -0.38339189 3.9600681e-39
10.784 -2.0334451 -0.32665154 7.9280857e-39
10.821919 -2.0405948 -0.37464371 8.2968696e-39
10.976897 -2.0856538 -0.32457238 8.2968612e-39
11.048702 -2.099297 -0.3506 8.6652822e-39
2.771976 -1.9048746 -0.30500314 8.3083687e-40
2.8566079 -1.9071128 -0.31082776 7.3864124e-40
2.9579761 -1.9083905 -0.32345068 9.219535e-40
3.0326371 -1.9007596 -0.3113856 1.8431867e-39
4.6659431 -1.9120436 -0.32749003 1.8439112e-39
4.7484779 -1.9259466 -0.34913877 1.290736e-39
4.8480911 -1.9539337 -0.34870243 2.1204967e-39
4.9484739 -1.9732264 -0.36063617 1.6587983e-39
5.0430331 -1.9902943 -0.37443548 1.1978187e-39
5.1196022 -1.9993789 -0.39880389 8.2867606e-40
5.5594049 -1.9096397 -0.39453951 2.1183499e-39
5.6501627 -1.9384136 -0.38480127 4.1466538e-39
5.7476168 -1.9421488 -0.36189368 7.1894725e-39
5.8462377 -1.9787501 -0.35643703 7.4653349e-39
5.9778008 -1.9521141 -0.32046896 7.9295318e-39
6.1479506 -1.9042581 -0.3340601 3.8743632e-39
6.2600784 -1.928943 -0.32958525 5.1640259e-39
6.3473291 -1.9390453 -0.31951827 5.4409729e-39
6.445787 -1.9419993 -0.31943989 5.1640259e-39
6.5561323 -1.940587 -0.31095418 5.6253613e-39
6.6406908 -1.9363853 -0.30926514 7.3774342e-39
6.75103 -1.9328458 -0.31404036 9.4975722e-39
6.8319678 -1.9348211 -0.31929606 1.0789031e-38
6.9566407 -1.962052 -0.31710154 1.0143302e-38
7.051713 -1.9603407 -0.31529903 1.2909891e-38
7.1364689 -1.9873539 -0.32596275 1.2079773e-38
7.2140265 -1.9847302 -0.30696419 1.5400972e-38
8.2817173 -1.9080951 -0.36436617 2.9484455e-39
8.3564329 -1.9132166 -0.35547662 3.0399208e-39
8.4387131 -1.9247863 -0.35301381 3.2243121e-39
8.5468178 -1.9368074 -0.35137048 3.2243107e-39
8.6524363 -1.9477364 -0.35570559 3.1317549e-39
8.7594833 -1.9603914 -0.3537817 3.3161462e-39
8.8532038 -1.9737602 -0.35119569 3.9615142e-39
8.9487133 -1.9791269 -0.36140925 3.4079803e-39
9.0345354 -1.9935571 -0.35838908 3.408339e-39
9.1136007 -1.9945773 -0.36809602 3.5912911e-39
10.392316 -1.9445958 -0.38224176 8.1128371e-39
10.442058 -1.9539034 -0.33129734 8.0206443e-39
2.2774465 -1.8230863 -0.31687605 7.3828531e-40
2.3548892 -1.8594126 -0.31799206 7.3828531e-40
2.4512548 -1.8391565 -0.34090042 4.6169702e-40
2.5445876 -1.825392 -0.34679517 6.4644561e-40
2.6503494 -1.845288 -0.34945321 8.3083687e-40
2.7472405 -1.8634509 -0.35058904 8.3083687e-40
2.8450449 -1.8770747 -0.35877872 8.3047673e-40
2.9532647 -1.8921931 -0.37331361 9.2195209e-40
3.0553665 -1.8807297 -0.34940234 7.6518673e-39
3.1576579 -1.8756636 -0.35733023 2.1219358e-39
3.2519689 -1.8678095 -0.35159546 5.5353111e-40
3.348567 -1.8338345 -0.35056984 7.3756364e-40
3.4163752 -1.8183373 -0.32617337 1.4751273e-39
4.251081 -1.809787 -0.35010785 1.1070636e-39
4.3500729 -1.828728 -0.35248601 1.014868e-39
4.4536672 -1.8521522 -0.3539443 1.1067049e-39
4.5490665 -1.8749721 -0.3505803 1.1070636e-39
4.6377654 -1.8903868 -0.36745885 7.382811e-40
5.3874054 -1.8086213 -0.39634845 1.2889466e-39
5.451406 -1.8311011 -0.38431996 2.3934934e-39
5.5562167 -1.848115 -0.36709851 6.1742275e-39
5.657948 -1.8791481 -0.34405684 9.3128376e-39
5.7298636 -1.8436507 -0.32928801 1.2910613e-38
5.8505793 -1.8155504 -0.34433821 1.0513529e-38
5.9655991 -1.8423451 -0.34655085 4.7959608e-39
6.0604429 -1.8447026 -0.34780186 3.2282764e-39
6.147203 -1.8524635 -0.34414202 3.688893e-39
6.2460275 -1.852759 -0.33483991 4.7026876e-39
6.3521976 -1.8621223 -0.32526365 5.532807e-39
6.4539275 -1.8605738 -0.32233873 7.10049e-39
6.545764 -1.8574662 -0.32103163 8.8522042e-39
6.6242228 -1.8633837 -0.3207747 9.0369556e-39
6.7201347 -1.8488219 -0.31017947 8.4841447e-39
6.884903 -1.8892074 -0.31282508 9.4060996e-39
7.3743691 -1.8036321 -0.35626617 3.1346416e-39
7.4588094 -1.8123847 -0.34814581 3.4112271e-39
7.5629392 -1.8249152 -0.34907714 3.3186713e-39
7.6591449 -1.8370851 -0.35354993 3.1342801e-39
7.7581811 -1.8456628 -0.34355688 2.8576904e-39
7.8552017 -1.8541166 -0.34508574 2.8569715e-39
7.9476371 -1.8640679 -0.34962857 3.0410026e-39
8.0445471 -1.8766544 -0.36082134 2.9491657e-39
8.1519594 -1.8849373 -0.34782308 2.9484455e-39
8.2493525 -1.8916967 -0.32720447 3.1313976e-39
9.761919 -1.8125536 -0.37311673 8.2050341e-39
9.8602848 -1.8308179 -0.35556406 8.1131986e-39
9.9475346 -1.847018 -0.33716446 8.205397e-39
10.055511 -1.8670666 -0.3118127 7.7444161e-39
2.2576442 -1.7962207 -0.32305893 7.3828531e-40
2.4601901 -1.7978547 -0.39312515 3.6985872e-40
3.3936203 -1.7426863 -0.37487659 1.567683e-39
3.4110954 -1.7567216 -0.32943526 1.6602374e-39
3.793021 -1.7001858 -0.34471494 1.5680418e-39
3.8519688 -1.7146926 -0.35072255 1.2914549e-39
3.949234 -1.7383922 -0.35156381 1.2914549e-39
4.0535374 -1.7645259 -0.35097259 1.2910947e-39
4.1521606 -1.7890164 -0.35128182 1.1992579e-39
4.2027149 -1.7989438 -0.39104193 1.6595157e-39
5.2699332 -1.7187365 -0.37419853 2.8566254e-39
5.3482389 -1.7579157 -0.37027791 3.408716e-39
5.4720492 -1.7580698 -0.34851596 7.2845197e-39
5.5710649 -1.7447566 -0.3505615 8.2071991e-39
5.6624269 -1.7638857 -0.3529824 9.4982981e-39
5.7405629 -1.7675399 -0.36212113 7.8387767e-39
