# .PCD v0.7 - Point Cloud Data file format
VERSION 0.7
FIELDS x y z rgb
SIZE 4 4 4 4
TYPE F F F F
COUNT 1 1 1 1
WIDTH 1090
HEIGHT 1
VIEWPOINT 0 0 0 1 0 0 0
POINTS 1090
DATA ascii
5.1910157 0.92336059 1.1083876 1.2542227e-38
5.2426362 0.94776237 1.1117954 1.2449671e-38
5.3624721 0.95895952 1.1295089 1.2356755e-38
5.4662304 0.94066268 1.1487374 1.1434077e-38
5.5467248 0.93264496 1.1399462 1.1617745e-38
5.6658101 0.95263797 1.1484288 1.1709939e-38
5.7727246 0.9761067 1.1576543 1.1894331e-38
5.8104382 0.98323655 1.1149058 1.2539339e-38
4.3925381 1.0056522 1.1926377 1.6597743e-38
4.4586678 1.051185 1.1500151 1.4846393e-38
5.4530258 1.0092912 1.121051 1.4661646e-38
5.555057 1.0235904 1.1380352 1.4016635e-38
5.6776934 1.0426967 1.1442412 1.456981e-38
5.7632236 1.0519997 1.1684422 1.281809e-38
5.8667092 1.0325301 1.1591679 1.2448586e-38
5.956882 1.0523335 1.1563505 1.2540422e-38
6.0314608 1.0735822 1.1255879 1.2909563e-38
4.4775276 1.1470156 1.1505866 1.5491758e-38
4.4867582 1.2338639 1.1430113 1.5952735e-38
4.5118394 1.2779402 1.1663972 1.5676149e-38
4.5521383 1.3448604 1.1504763 1.6505911e-38
4.6062517 1.3954834 1.1802313 1.7151282e-38
4.5962863 1.4027398 1.11568 1.7796653e-38
4.6531634 1.4530165 1.1528137 1.6874698e-38
4.6910458 1.5142541 1.1316738 1.7336398e-38
4.7268467 1.5597413 1.1571574 1.6875418e-38
4.7758422 1.6520449 1.1478853 1.7521149e-38
4.7856112 1.7350267 1.1511018 1.7613345e-38
4.8021688 1.7856863 1.1495844 1.835091e-38
4.7801208 1.8400685 1.1261977 1.9181029e-38
4.8085074 1.849031 1.1724867 1.9457256e-38
4.7626834 1.9479103 1.1241767 2.0194824e-38
4.8263564 1.949957 1.174013 1.9272871e-38
4.78405 2.056567 1.1216376 2.0195188e-38
4.8262687 2.0509841 1.1712255 1.9457985e-38
4.7954555 2.1554027 1.1188645 2.1578109e-38
4.8099933 2.1486559 1.1646388 2.0748717e-38
4.7977333 2.2163329 1.1119874 2.1393719e-38
4.8159022 2.2485404 1.1563017 2.0749075e-38
4.8690238 2.3245516 1.1498783 1.8813337e-38
4.9220557 2.376178 1.1491815 1.8629668e-38
4.9728165 2.424705 1.1521484 1.8445638e-38
5.0310931 2.4746969 1.1503184 1.7247456e-38
5.0773039 2.5185289 1.1482687 1.6879034e-38
5.1326213 2.5692325 1.1559399 1.6510974e-38
5.1855025 2.6114023 1.1437802 1.5589381e-38
5.244626 2.6516154 1.158216 1.4483754e-38
5.3026681 2.6893163 1.1417836 1.1533859e-38
5.3600335 2.7305794 1.1477945 1.0335678e-38
5.4271865 2.7792234 1.1575285 9.3226075e-39
5.476356 2.8168175 1.1410924 8.5864858e-39
5.5451503 2.869853 1.1484401 8.3102646e-39
5.5880399 2.9117517 1.1662822 8.6794059e-39
5.648499 2.9544227 1.1539923 8.0344036e-39
5.7074027 2.9880357 1.1330118 7.3901244e-39
5.6965361 3.0020702 1.1834538 8.4035392e-39
5.7605443 3.0422409 1.1544721 8.0351295e-39
5.8128524 3.0851748 1.1500208 7.8518228e-39
5.5756073 3.1670272 1.1135266 7.8543452e-39
5.6494565 3.1646609 1.1129767 7.7617922e-39
5.7619376 3.1666739 1.1125011 8.0376574e-39
5.8580418 3.135993 1.1545844 8.0365742e-39
5.9200449 3.1842501 1.1681219 7.6681532e-39
5.5781307 3.2172725 1.117288 7.9468995e-39
5.6675491 3.2672086 1.1397216 7.9468995e-39
5.7545242 3.2389448 1.1510227 7.7621495e-39
5.8366308 3.2482104 1.1717329 7.8532648e-39
5.9567671 3.241097 1.1677638 7.852906e-39
6.0190578 3.286654 1.1931431 7.5766793e-39
5.494833 3.357305 1.1027951 8.5919144e-39
5.5535579 3.3574147 1.1696717 8.2231291e-39
5.657712 3.3652911 1.157467 8.499716e-39
5.7479773 3.3603909 1.1603569 8.130932e-39
5.8247848 3.3205132 1.1944878 7.8539836e-39
5.5674057 3.436939 1.1723709 7.9469023e-39
5.6342864 3.4531877 1.1533171 8.3153275e-39
5.7147369 3.4121888 1.1095886 8.4075217e-39
5.5952492 3.5056641 1.1946998 7.6706742e-39
5.6511173 3.5437267 1.1802921 8.2234906e-39
5.724443 3.5820971 1.1674567 8.7766658e-39
5.6884503 3.614465 1.1923182 8.6848289e-39
5.7430687 3.6453619 1.1722966 8.9610585e-39
5.6937518 3.7801251 1.1960156 8.684473e-39
5.7532849 3.7578361 1.1770529 9.329841e-39
5.8011627 3.7351074 1.167529 9.2376467e-39
5.6928802 3.8501823 1.1950105 9.0532555e-39
5.7157326 3.8490255 1.1664852 9.882656e-39
5.6870565 3.9532802 1.1877254 9.6060663e-39
5.7119994 3.9457591 1.1616704 1.0250717e-38
5.6917291 4.0165586 1.194182 9.7904576e-39
5.7193913 4.0505757 1.1701511 1.0343268e-38
5.7556367 4.142282 1.1754826 1.0619492e-38
5.791584 4.207583 1.181718 1.0803522e-38
5.8265009 4.256218 1.1814529 1.0711325e-38
5.8779163 4.3230014 1.1872151 1.0711685e-38
5.910708 4.3776746 1.1860257 1.0619488e-38
5.7168336 4.4973102 1.1216909 1.7542631e-39
5.9436874 4.4513602 1.188899 1.052729e-38
5.6466513 4.5844712 1.1120203 1.6624206e-39
5.7475076 4.5408187 1.1277095 1.9382886e-39
5.9712591 4.5398092 1.1905655 1.0157786e-38
5.6737804 4.6352806 1.1152989 2.1226729e-39
5.7367897 4.6729226 1.1311361 1.6620591e-39
5.6774964 4.7448697 1.105782 2.7673094e-39
5.7402601 4.7575083 1.1246378 2.3988912e-39
5.8428907 4.7524376 1.1548537 1.4776706e-39
5.6945233 4.8248057 1.100883 2.3992472e-39
5.7489638 4.8541789 1.1186222 2.4910855e-39
5.8155761 4.8602772 1.1410651 2.5832839e-39
5.9479489 4.8764839 1.1756186 2.2145098e-39
5.7721295 4.9488492 1.1152444 2.3988912e-39
5.840364 4.9651394 1.1333323 2.3985325e-39
5.9622426 4.9569693 1.1784437 2.6751208e-39
6.0128517 4.9860802 1.1884466 2.6751194e-39
5.7819829 5.0282068 1.1177908 2.3070544e-39
5.8428583 5.0459309 1.1252155 2.3063355e-39
5.9439168 5.0692334 1.1606145 2.2145028e-39
6.02109 5.0363426 1.1987615 1.2947283e-39
5.6251631 5.1736364 1.1236809 2.3981724e-39
5.8741918 5.1379242 1.1321114 2.2141399e-39
5.944418 5.1578588 1.1437126 1.9375544e-39
6.0105572 5.1662683 1.1879932 2.3074201e-39
5.6562691 5.2415018 1.1265159 2.398171e-39
5.744761 5.2641339 1.1409866 2.398171e-39
5.8525105 5.2689905 1.1454587 2.3066928e-39
5.9417176 5.2571015 1.1516241 2.3063341e-39
6.0182505 5.2669482 1.1588286 1.8453573e-39
5.6980381 5.3168888 1.1262234 2.4903666e-39
5.7763605 5.3495212 1.1489481 2.490368e-39
5.861464 5.3395767 1.1484895 2.398171e-39
5.9244947 5.3176441 1.171549 2.5832825e-39
6.051476 5.3315077 1.1606917 1.7531603e-39
5.7849779 5.4021864 1.1350614 2.305974e-39
5.8672075 5.4378061 1.1354989 2.2141371e-39
5.9322186 5.4618764 1.1515081 2.3063341e-39
5.90869 5.5049167 1.1422863 2.3059754e-39
2.2798808 -1.3532537 1.2223485 4.3299184e-39
2.355042 -1.340829 1.238059 3.6841986e-39
2.414638 -1.3195249 1.2608554 5.2507971e-39
2.4537914 -1.2541449 1.2548965 5.5270238e-39
2.3990104 -1.1030213 1.2044305 1.077962e-38
2.4511714 -1.1533984 1.2527245 6.9088611e-39
2.3842897 -1.0598689 1.2482351 1.3730233e-38
2.4428775 -1.0624578 1.2541729 7.0010511e-39
2.5583482 -1.0575618 1.2482963 6.4478843e-39
2.6493759 -1.0235767 1.2508581 6.7241111e-39
2.7069812 -1.0042917 1.2732961 6.8163067e-39
2.6904464 -0.92763621 1.218472 8.382538e-39
2.7291501 -0.96319407 1.2555856 6.6315525e-39
2.6338954 -0.84163493 1.2491161 1.1055477e-38
2.7024629 -0.89945406 1.2807502 6.2624014e-39
2.5979545 -0.7717638 1.2601269 1.5022044e-38
2.6338472 -0.77677441 1.254317 8.7524009e-39
2.7517359 -0.75113088 1.2563269 4.0518909e-39
2.8361766 -0.7222116 1.2361816 4.2366437e-39
2.8781376 -0.67532295 1.2771089 3.8674997e-39
2.917398 -0.64932448 1.2450899 5.9876278e-39
2.8929346 -0.53995371 1.2454034 1.2624601e-38
2.9159405 -0.55350494 1.2564007 1.1057641e-38
2.9832404 -0.48468295 1.2309662 8.6616598e-39
3.033314 -0.43958539 1.2544129 9.0322542e-39
3.0865488 -0.38797843 1.2417399 9.5865056e-39
3.1189003 -0.33894351 1.251961 1.0878684e-38
3.0866089 -0.22150671 1.2431817 1.2722963e-38
3.1142857 -0.26941001 1.2544003 1.2261984e-38
2.9841537 -0.11153843 1.2460396 1.3460528e-38
3.037796 -0.16137101 1.2505279 1.3091746e-38
2.8574302 -0.030867197 1.247833 1.4198452e-38
2.9368033 -0.080000795 1.2512659 1.3645278e-38
2.7773938 0.074993573 1.2486001 1.4382485e-38
2.8195586 0.026977878 1.2569437 1.4105898e-38
2.6614041 0.17130789 1.2482427 1.465943e-38
2.7269874 0.12111299 1.2519066 1.4474682e-38
2.4956324 0.29901972 1.2419424 1.6226034e-38
2.5476637 0.26057726 1.2474215 1.5580665e-38
2.6152213 0.21241008 1.2597806 1.4751626e-38
2.3737836 0.37595057 1.2467 1.4012623e-38
2.4396303 0.32773674 1.247938 1.2998831e-38
2.2826557 0.48018622 1.2230159 1.4473959e-38
2.329895 0.42970967 1.2359962 1.3920788e-38
2.5743411 0.44722182 1.2096403 1.4014101e-38
2.6507409 0.45980522 1.240147 1.4752028e-38
2.7457705 0.4751966 1.2771541 1.5305922e-38
2.2453344 0.51331633 1.213951 1.4566513e-38
3.2871668 0.57465363 1.2485389 1.6137851e-38
3.3291571 0.58804017 1.2404602 1.6322602e-38
3.369405 0.61131293 1.2680843 1.6138209e-38
3.4497075 0.63092619 1.2496946 1.6691384e-38
3.5497556 0.65955532 1.2547431 1.7152721e-38
3.6530561 0.66545355 1.2391287 1.8165791e-38
3.7350526 0.68397665 1.2285285 1.8349821e-38
3.6686213 0.7164337 1.2814591 1.6968332e-38
3.7514174 0.73254013 1.2705814 1.7612978e-38
3.846585 0.7417019 1.2532986 1.7981399e-38
3.9462218 0.78044778 1.2532051 1.7888843e-38
4.0013471 0.7983284 1.2007247 1.7519344e-38
2.2455544 0.86268234 1.2107549 8.0217415e-39
2.3147535 0.89261144 1.2456139 1.0879805e-38
3.9896643 0.80607247 1.2825891 1.8626407e-38
4.0503669 0.82794249 1.2554895 1.7427506e-38
4.1503024 0.87362349 1.2511547 1.7703732e-38
4.2052336 0.89482033 1.2145801 1.7888483e-38
2.3767343 0.91994119 1.2789669 1.0695413e-38
2.4039249 0.9269976 1.2901306 1.0050045e-38
4.192379 0.90529978 1.2775829 1.7888482e-38
4.2491431 0.93547744 1.2546331 1.7611895e-38
4.3319764 0.98066974 1.2405421 1.7058721e-38
5.7562351 0.99066442 1.2096878 1.115713e-38
5.8328824 0.99544942 1.2117797 1.1525188e-38
4.3697634 1.0264736 1.2590958 1.7150918e-38
4.4268327 1.0710357 1.2386724 1.6782135e-38
5.7750378 1.023072 1.2143354 1.115749e-38
5.8601804 1.0300672 1.2182117 1.1433715e-38
5.9450479 1.0403292 1.216107 1.1618107e-38
4.4721994 1.1334876 1.2451073 1.6782496e-38
4.5148315 1.1828623 1.2541314 1.7520061e-38
4.5411916 1.2463484 1.2460701 1.6689941e-38
4.6118183 1.2927108 1.2924356 1.7981039e-38
4.5705576 1.3363557 1.2325833 1.5583595e-38
4.6200747 1.3679992 1.2661352 1.6689941e-38
4.664144 1.4474784 1.2424245 1.6321519e-38
4.7097015 1.4841881 1.2856538 1.7243114e-38
4.6990504 1.5001996 1.2134966 1.5769069e-38
4.7368956 1.5508413 1.2476618 1.6783219e-38
4.782259 1.6460146 1.2450559 1.7613338e-38
4.8038702 1.6851431 1.2778625 1.7152363e-38
4.7966328 1.7222017 1.2102888 1.8627135e-38
4.8162065 1.7508838 1.2556645 1.7797733e-38
4.8417044 1.8463626 1.2503039 1.8074323e-38
4.8764915 1.9423339 1.2400984 1.8258717e-38
4.9109445 1.9733694 1.2777344 1.779774e-38
4.8787498 2.0534568 1.2242477 1.8812255e-38
4.9190249 2.0500762 1.2722961 1.825872e-38
4.8519449 2.1566477 1.2338189 1.991896e-38
4.9237213 2.1419065 1.2815365 1.8996644e-38
4.8270965 2.2454379 1.2483758 2.0380296e-38
4.9111609 2.2055717 1.2966129 1.9550535e-38
4.8712564 2.3305831 1.2518586 1.8536752e-38
4.9224691 2.3802826 1.2498684 1.8076135e-38
4.9715581 2.4247434 1.2497793 1.8260886e-38
5.0328741 2.475059 1.2504914 1.6970509e-38
5.0815129 2.5138106 1.2456371 1.6232944e-38
5.1378012 2.5629809 1.2508711 1.5772686e-38
5.1921082 2.6088996 1.2521913 1.5496821e-38
5.2543936 2.6550145 1.2507669 1.494437e-38
4.6431675 2.7569516 1.2875928 6.9280462e-39
4.7442369 2.7635036 1.2919506 7.0209649e-39
4.841639 2.7893858 1.2961184 7.2975532e-39
4.9196935 2.7985013 1.2988658 7.5741401e-39
5.3592062 2.7354405 1.2600666 1.1073599e-38
5.4236326 2.7809045 1.2570481 8.7690708e-39
4.6524916 2.8457568 1.277301 7.2057177e-39
4.7466879 2.8525064 1.2644315 7.390116e-39
4.8483667 2.8484991 1.276989 7.3904775e-39
4.9488811 2.8493283 1.2856983 7.5748674e-39
5.0401902 2.8674297 1.2876558 7.6674217e-39
5.1231318 2.8901944 1.295293 7.6674217e-39
5.3894758 2.84025 1.297784 6.8354919e-39
5.4513845 2.8438137 1.2746702 7.6645309e-39
5.5357718 2.8732309 1.2382497 9.0471024e-39
4.6774988 2.9348016 1.2888786 7.4823046e-39
4.7441821 2.9498932 1.2670382 7.5752247e-39
4.8479681 2.9488406 1.2533921 7.6677861e-39
4.9510903 2.9481773 1.2610499 7.6681462e-39
5.0513649 2.9473832 1.2754997 7.8518172e-39
5.1485505 2.9535639 1.2855545 7.7599789e-39
5.257154 2.9666445 1.2908477 7.7603362e-39
5.3466635 2.9509454 1.2889134 7.8514501e-39
5.452282 2.9494064 1.2824495 7.8514487e-39
5.5517936 2.9496961 1.2651939 7.8503655e-39
5.6394148 2.9679127 1.2423211 9.1400211e-39
4.7647572 3.0309329 1.2885317 7.6670602e-39
4.8494434 3.0518048 1.2740582 7.8521759e-39
4.9467034 3.0523784 1.2591085 7.8525403e-39
5.0495839 3.0485048 1.2633421 7.7607034e-39
5.1545863 3.0508339 1.271156 7.6688665e-39
5.2436275 3.0464933 1.2743254 7.9450904e-39
5.3495955 3.0467846 1.2794847 8.1291216e-39
5.4529781 3.046087 1.2779703 8.1291202e-39
5.5423098 3.0482616 1.2601277 7.7599761e-39
5.651432 3.0500295 1.2582319 8.4964593e-39
5.7386503 3.0546494 1.2419814 9.2329398e-39
4.8686137 3.1292374 1.2917266 7.9443716e-39
4.9509335 3.1513572 1.2851228 8.0369301e-39
5.047904 3.1498797 1.2729294 8.0372931e-39
5.1554785 3.1491108 1.2684581 8.0376518e-39
5.2512054 3.1496153 1.2656609 8.4982684e-39
5.3507667 3.1525445 1.2661533 8.1305649e-39
5.4536877 3.1516545 1.2731923 8.129846e-39
5.5505314 3.1495678 1.2755934 8.2216787e-39
5.6472554 3.1566055 1.2626116 8.0369273e-39
5.7454228 3.1528192 1.2526469 8.8656034e-39
5.8490882 3.1537097 1.2397635 1.0155259e-38
5.910502 3.1903529 1.2157109 9.6946452e-39
4.9712725 3.221698 1.2939405 8.2216815e-39
5.0529919 3.2461739 1.292436 8.129846e-39
5.1555638 3.2495165 1.2860944 8.2220459e-39
5.2512388 3.2602069 1.2728466 8.7752168e-39
5.3600745 3.2540958 1.2606342 8.2227633e-39
5.4480128 3.2529459 1.2483544 8.0383735e-39
5.5469737 3.2481275 1.2539574 8.2227633e-39
5.6535749 3.2538142 1.2540466 8.3145988e-39
5.7523785 3.252353 1.2420805 8.2224018e-39
5.8384047 3.244173 1.2277962 8.4057099e-39
5.9460583 3.2490218 1.2291609 9.5106169e-39
6.0151873 3.2849808 1.2138547 8.0365742e-39
4.0372419 3.3668678 1.2968261 7.5701646e-39
5.0776663 3.3132248 1.2966092 8.2220417e-39
5.1477122 3.3277171 1.2964293 8.4064357e-39
5.2667799 3.3370428 1.2825565 8.775577e-39
5.3500595 3.3458145 1.2621918 8.4993502e-39
5.4476933 3.3469439 1.2392567 8.0387336e-39
5.5357337 3.3399155 1.21833 8.0390951e-39
5.6560545 3.3226852 1.226967 8.4993516e-39
5.7475605 3.323596 1.2160941 8.131288e-39
5.8213964 3.3150599 1.2192273 8.2227647e-39
6.043581 3.3041179 1.2061419 7.6681518e-39
4.0714564 3.4178219 1.2970662 7.8467543e-39
4.1157069 3.4417384 1.2982273 8.1240615e-39
5.2933049 3.4272177 1.2982304 9.2361964e-39
5.3516536 3.4495001 1.2848264 9.1443595e-39
5.45119 3.4512329 1.2607149 8.3149618e-39
5.5411711 3.459538 1.2299329 8.2231263e-39
5.3742948 3.5270755 1.2914889 9.3283906e-39
5.44069 3.5517023 1.2708166 8.2231305e-39
5.5675998 3.5411999 1.2431712 7.9465436e-39
5.6166296 3.5776198 1.2209731 7.8547081e-39
5.4728942 3.6445892 1.2792439 7.7617978e-39
5.566947 3.649075 1.25807 7.8547123e-39
5.6417704 3.6492429 1.2272091 8.3160478e-39
5.7181334 3.6853881 1.2081721 8.8688614e-39
5.4915361 3.7531633 1.2771308 8.2227759e-39
5.5524058 3.7488008 1.2676677 8.3153317e-39
5.6480713 3.7521162 1.2294241 8.4078875e-39
5.7200723 3.7209141 1.2062089 8.7766672e-39
5.4869542 3.8232827 1.2772402 8.6833926e-39
5.5493469 3.8553116 1.2689606 8.5911983e-39
5.6450443 3.8536072 1.2324848 8.8685041e-39
5.5604153 3.9386554 1.2792697 9.2358475e-39
5.637361 3.9472184 1.2302542 9.1443721e-39
4.7356977 4.0680757 1.2839224 1.4487002e-38
4.8088684 4.0952244 1.2973568 1.4118578e-38
5.5898662 4.0022774 1.2903218 9.8801351e-39
5.6699777 4.0451708 1.2470694 9.2362062e-39
5.7060237 4.088181 1.2279328 9.6049873e-39
4.7720895 4.1235423 1.2801305 1.3656881e-38
4.8375635 4.1559892 1.2829169 1.3565047e-38
4.913825 4.1846051 1.2973164 1.3933829e-38
5.6976366 4.1040993 1.2987592 9.9734097e-39
5.7364507 4.1488547 1.246948 9.6971816e-39
4.8723397 4.2205534 1.2883542 1.2643091e-38
4.9263196 4.2435508 1.2949282 1.2827483e-38
5.7861362 4.2219663 1.257322 9.7890171e-39
5.8220959 4.2685928 1.2452172 1.0158157e-38
5.870677 4.3349981 1.2505354 1.0249992e-38
5.9147034 4.3854656 1.2368673 1.0618774e-38
5.9592094 4.4538136 1.2510122 1.0618052e-38
5.9938388 4.5242038 1.2440418 1.061805e-38
6.0211587 4.5610003 1.2553976 1.0894276e-38
5.4923248 4.6099048 1.2995005 1.0892111e-38
5.5492845 4.6497064 1.2969381 1.0799917e-38
5.6117716 4.6939669 1.2953783 1.0983586e-38
6.0592155 4.642221 1.2471397 1.0894276e-38
6.1056685 4.6886888 1.2728601 1.1170145e-38
5.4869194 4.7755446 1.2949187 1.0155265e-38
5.552341 4.782568 1.2765779 9.5102581e-39
5.6407428 4.7640896 1.2903128 1.0339657e-38
5.705987 4.7892389 1.2841952 1.0338938e-38
6.0624151 4.7444744 1.2203773 1.061912e-38
6.1268587 4.7521706 1.2687665 1.1261979e-38
5.4896994 4.8195553 1.2959061 1.0340016e-38
5.5541363 4.8433414 1.2667147 9.326227e-39
5.6499143 4.8376136 1.2537522 9.5099008e-39
5.7317114 4.8597383 1.2537026 9.6942879e-39
5.8081269 4.8847518 1.2680769 1.0338573e-38
6.0894146 4.8138366 1.2240795 1.0526561e-38
6.1430974 4.8405728 1.2673882 1.1170498e-38
5.5766144 4.9347992 1.2811402 9.1421945e-39
5.6481714 4.9560099 1.2478998 8.7737735e-39
5.7430763 4.9516854 1.2224767 9.4187828e-39
5.8349361 4.951683 1.2427899 1.0063428e-38
5.9178023 4.9798136 1.2721241 1.1260888e-38
6.0751085 4.9675927 1.2095163 7.4372655e-40
6.1710324 4.9256015 1.2583704 8.9559956e-39
6.2268496 4.9656053 1.2750629 1.0709156e-38
5.6678638 5.0400009 1.252591 8.6815779e-39
5.7461705 5.0463061 1.2219828 8.7744952e-39
5.8480716 5.049149 1.2254871 9.3269487e-39
5.9394388 5.0544634 1.244795 1.0063431e-38
6.0362482 5.0687966 1.2355345 5.7244514e-39
6.1460524 5.0611038 1.2236406 9.7636872e-41
6.2551455 5.0498075 1.2623218 8.3117009e-39
6.3189273 5.0682082 1.2838975 1.0710955e-38
5.6954379 5.1104169 1.2900376 8.2202396e-39
5.742785 5.1494069 1.2552199 8.8659677e-39
5.8386803 5.1553183 1.2213761 8.5904613e-39
5.9374962 5.1375613 1.2335134 9.0510807e-39
6.0537825 5.1574354 1.2338878 6.6482111e-39
6.131794 5.1597776 1.2451905 4.0663776e-39
6.2458038 5.1626215 1.2525111 3.5146387e-39
6.3361368 5.1512995 1.2837797 1.0342529e-38
5.7821817 5.2186208 1.2673208 9.1421945e-39
5.8460817 5.2536874 1.2499717 8.5900997e-39
5.9497719 5.2588634 1.2312723 8.4993432e-39
6.0627685 5.2516727 1.2284861 6.0028361e-39
6.1465397 5.2516308 1.2479578 5.4518358e-39
6.2501674 5.2559099 1.2679288 6.5592637e-39
6.3548207 5.2347379 1.2844812 8.0358329e-39
5.8781877 5.3296518 1.2759246 9.326583e-39
5.9573889 5.358798 1.2391289 6.4663436e-39
6.0638099 5.3573589 1.230487 4.3433148e-39
6.121347 5.350522 1.2358127 2.4976001e-39
6.2840996 5.3061996 1.2828557 9.8811931e-39
6.3534145 5.3151464 1.2860017 7.3901034e-39
5.9669766 5.4352531 1.2461737 5.9106433e-39
6.0363083 5.4505243 1.2470027 5.3607191e-39
5.9625444 5.5335708 1.2129111 3.1361032e-39
6.0600252 5.5524826 1.2603998 5.8216959e-39
6.0874696 5.6377602 1.259564 5.1745216e-39
6.111968 5.6525464 1.2806846 7.2993455e-39
6.1494007 5.7286992 1.2854352 7.3900992e-39
2.3955925 -1.3491272 1.3040887 4.6050717e-39
2.4332631 -1.3213582 1.3166368 4.789463e-39
2.4774957 -1.2482111 1.3279746 4.3288436e-39
2.5011408 -1.2063991 1.3613302 3.959338e-39
2.4774511 -1.1647373 1.3226228 4.9731242e-39
2.5022523 -1.1893978 1.3545352 4.1437292e-39
2.3934224 -1.065935 1.3034834 1.0133536e-38
2.4510682 -1.057999 1.3185033 6.2627658e-39
2.5664406 -1.0682421 1.3468961 5.801796e-39
2.6414728 -1.0264052 1.352636 5.8014387e-39
2.7048454 -1.0022584 1.3044552 5.7099647e-39
2.6912842 -0.94389653 1.3581204 5.6170446e-39
2.7132366 -0.96158636 1.3377094 5.4333736e-39
2.6426957 -0.85065055 1.3540833 6.5389911e-39
2.5985572 -0.76740468 1.3141369 1.1887403e-38
2.6425102 -0.7506839 1.3513871 9.0293493e-39
2.7336535 -0.71965551 1.3222401 4.6968932e-39
2.6884196 -0.69521135 1.3713621 7.0950446e-39
2.7550502 -0.68104053 1.3627293 6.0798207e-39
2.8632619 -0.64894062 1.3479917 4.6965345e-39
2.9005854 -0.64690262 1.3056026 4.1444453e-39
2.8925583 -0.56579429 1.3485824 7.3694749e-39
2.9366632 -0.52209592 1.3490441 1.244166e-38
3.0258305 -0.50524378 1.3631358 1.0231145e-38
3.0617621 -0.45351526 1.3468354 9.1258918e-39
3.1074705 -0.4091976 1.372888 9.6797858e-39
3.098032 -0.39533564 1.3073232 9.5875888e-39
3.1254232 -0.34882733 1.3497345 1.0602101e-38
3.0935094 -0.2098317 1.3286726 1.2538572e-38
3.1255398 -0.25624546 1.3526542 1.2077592e-38
2.9910181 -0.10653184 1.3430656 1.3091746e-38
3.0469689 -0.15595207 1.3509952 1.2815159e-38
2.866188 -0.02491753 1.3493587 1.3829312e-38
2.9419651 -0.074813388 1.3529687 1.3368333e-38
2.7822416 0.071591951 1.3543993 1.4012982e-38
2.8162251 0.022928158 1.3464499 1.3828952e-38
2.6785762 0.17823413 1.3482009 1.4474323e-38
2.7334561 0.12860246 1.3535404 1.4198095e-38
2.4963491 0.29998249 1.3265282 1.493494e-38
2.5576653 0.27383006 1.3437999 1.4842744e-38
2.6320007 0.22496757 1.3518425 1.475019e-38
2.3940489 0.35675845 1.3035772 1.530264e-38
2.4535444 0.31976697 1.3204232 1.5026775e-38
2.7857661 0.49350822 1.3041568 1.576654e-38
2.8516066 0.49315199 1.3153888 1.5582508e-38
2.9010677 0.49510103 1.322561 1.5306285e-38
2.7976491 0.50166786 1.3117384 1.5766542e-38
2.8719604 0.51740164 1.3413749 1.57669e-38
2.9510918 0.52912635 1.3635231 1.5767262e-38
3.0417008 0.54684657 1.3825508 1.5675068e-38
3.1133468 0.55603725 1.3968788 1.5491397e-38
3.3350048 0.59573555 1.331076 1.5031503e-38
3.3734183 0.6230734 1.3420465 1.5031502e-38
3.443624 0.66262549 1.3477759 1.5216253e-38
3.5328286 0.68996608 1.3268286 1.5861625e-38
3.5630672 0.71565503 1.3632507 1.5400647e-38
3.6499357 0.7372238 1.3417929 1.6138571e-38
3.7455595 0.7745477 1.3473468 1.6506995e-38
3.8333654 0.79141068 1.317341 1.6876134e-38
3.9305096 0.79229301 1.305002 1.8719323e-38
3.794749 0.80090535 1.387818 1.6137852e-38
3.86166 0.81672704 1.3562148 1.6691384e-38
3.9539962 0.84243131 1.3443406 1.7244557e-38
4.0445156 0.87078834 1.3360305 1.8165791e-38
4.1247983 0.88799447 1.316152 1.9087025e-38
2.4596648 0.96359944 1.3313596 9.4046773e-39
2.5197451 0.99064106 1.3587404 1.0326635e-38
4.0728431 0.91231382 1.3720292 1.6967973e-38
4.1576166 0.93895179 1.3490475 1.79814e-38
4.2342534 0.97614807 1.3327401 1.835018e-38
4.3083863 0.99426031 1.3032173 1.7611895e-38
2.566009 1.0169346 1.3853563 1.0142244e-38
2.6121135 1.0223479 1.3962057 1.4291407e-38
4.2706337 1.0147096 1.3643618 1.8073596e-38
4.3486443 1.051759 1.3442156 1.8534212e-38
4.4130578 1.0910583 1.3330648 1.8442017e-38
4.459393 1.127872 1.3499311 1.8442378e-38
4.5299258 1.1789511 1.3515919 1.8719323e-38
4.5790482 1.2287081 1.344595 1.8719323e-38
4.6215906 1.2755728 1.3564117 1.8350181e-38
4.6689091 1.339586 1.3419701 1.798104e-38
4.7195573 1.3760301 1.3734615 1.7704453e-38
4.6845393 1.413723 1.3141291 1.8349821e-38
4.7529907 1.4531587 1.3516942 1.9364333e-38
4.8069 1.479164 1.3939117 1.7336395e-38
4.7768688 1.5450681 1.3322209 1.7889563e-38
4.81319 1.5602911 1.3783938 1.7060166e-38
4.7956915 1.614077 1.3062551 1.6691022e-38
4.8283744 1.6541903 1.3530502 1.595418e-38
4.837676 1.750177 1.3491929 1.6415159e-38
4.8657956 1.8496019 1.3494653 1.7060171e-38
4.8938508 1.9117403 1.3378153 1.7428954e-38
4.9242501 1.9600322 1.3512523 1.7060171e-38
4.96065 2.0464761 1.348081 1.7428957e-38
5.0036635 2.0901206 1.3932208 1.6967977e-38
4.9755268 2.150959 1.3302697 1.8443111e-38
5.0128922 2.1540389 1.3817993 1.7613708e-38
4.8694324 2.2710259 1.3427426 1.9458345e-38
4.9487572 2.2356088 1.3581301 1.9181757e-38
5.0102191 2.2115092 1.3863779 1.82598e-38
4.8749189 2.3297493 1.3543384 1.7706991e-38
4.9144468 2.3800268 1.3503903 1.687759e-38
4.9676762 2.4282825 1.3502854 1.7338929e-38
5.0328598 2.4802721 1.3449986 1.6324419e-38
4.6794376 2.5880685 1.3884912 6.2783524e-39
4.7405863 2.5668201 1.3828527 6.2783496e-39
4.8447595 2.5726609 1.3864222 6.3705424e-39
4.9265752 2.5897565 1.3865504 6.2794244e-39
5.0789576 2.5186393 1.3567146 1.5126235e-38
5.1367798 2.5667319 1.3509916 1.4573423e-38
4.5985518 2.6514072 1.3913921 6.0950402e-39
4.6331034 2.6512697 1.352066 6.2805118e-39
4.7461276 2.6480861 1.3390546 6.6492943e-39
4.8464165 2.6488352 1.3524321 6.7414886e-39
4.9492579 2.6506069 1.3704906 6.7407683e-39
5.04778 2.6655114 1.381187 6.924798e-39
5.1580744 2.6540303 1.3655128 1.0058006e-38
5.251462 2.6606376 1.3542749 1.3836944e-38
5.3060274 2.6967604 1.3281362 1.4206807e-38
4.594945 2.7579906 1.3647455 6.7418487e-39
4.6095743 2.734926 1.3241389 6.7429319e-39
4.7626367 2.7186072 1.3064528 7.0202405e-39
4.8543558 2.7439787 1.3143158 7.2046331e-39
4.9483438 2.7568545 1.3243657 7.2968288e-39
5.051527 2.7503996 1.3503681 7.2957455e-39
5.1510816 2.7479811 1.3622755 7.2028297e-39
5.2572393 2.7479806 1.3600631 7.4783347e-39
5.3399067 2.7527034 1.3345155 8.7687106e-39
5.4049911 2.7730505 1.3048276 8.3077325e-39
4.5925789 2.8448937 1.3746182 7.3879342e-39
4.6175728 2.8591774 1.3290132 7.2968259e-39
4.9773321 2.8049257 1.302103 7.4826662e-39
5.0593476 2.8263896 1.3121039 7.6666987e-39
5.1563826 2.850035 1.3286484 7.6663371e-39
5.2491946 2.8526323 1.3403976 7.6659742e-39
5.3359313 2.8469062 1.3214123 7.29647e-39
5.4005551 2.8928359 1.3011609 7.4815829e-39
4.5875196 2.9357054 1.3828545 7.8489109e-39
4.6284385 2.9489582 1.3355548 7.4812172e-39
5.1836519 2.9075246 1.3049846 7.8514515e-39
5.2598042 2.920157 1.3088428 7.7596132e-39
5.3448138 2.9100642 1.3117216 7.5745016e-39
5.4014034 2.9010825 1.3013654 7.297912e-39
4.6625056 3.0373821 1.3642404 7.8496368e-39
4.7352028 3.0679233 1.3257569 7.75853e-39
3.7579823 3.1372116 1.3947543 1.1899733e-38
3.837455 3.1723859 1.3628949 1.0057624e-38
3.9112155 3.1948884 1.3683568 1.0795547e-38
4.6955881 3.1062574 1.3921109 8.4935657e-39
4.7590718 3.1383729 1.3659304 8.126588e-39
4.8355494 3.1632571 1.3274077 8.1276754e-39
4.9067121 3.1946049 1.3048756 8.0365672e-39
3.8645146 3.2331066 1.3572435 8.6750548e-39
3.9371657 3.2539935 1.3363121 9.8739568e-39
4.0272222 3.280498 1.3606881 1.0427486e-38
4.7995281 3.2113719 1.3952367 8.4942901e-39
4.8650441 3.2379565 1.3677197 8.4957335e-39
4.9402571 3.262161 1.3324568 8.3127912e-39
5.0151229 3.2910097 1.3085372 8.2213214e-39
3.9628637 3.3428452 1.3486131 7.8460214e-39
4.0432029 3.3435473 1.3229989 8.3999169e-39
4.1454496 3.3685462 1.3535532 8.4921111e-39
4.2110677 3.3930776 1.3817875 8.40027e-39
4.9639878 3.3416324 1.371536 8.7726833e-39
5.041276 3.3540347 1.3330871 8.589741e-39
5.142621 3.3760178 1.3065851 8.4982684e-39
5.2300601 3.3814054 1.3021114 8.590827e-39
4.0492201 3.4430017 1.342312 7.1088207e-39
4.1535406 3.4484911 1.3127158 8.1237027e-39
4.2499204 3.438493 1.3551792 8.1236971e-39
4.3440022 3.4662373 1.3789506 8.2158956e-39
4.4168773 3.4920259 1.3920311 8.6768737e-39
4.99545 3.4094868 1.3923738 8.957076e-39
5.0531635 3.4423814 1.3679988 9.1418316e-39
5.1417093 3.4517858 1.3309835 9.0503618e-39
5.2519383 3.4520485 1.3115176 8.8674125e-39
5.3169312 3.483608 1.3051149 9.328392e-39
4.0982485 3.5077987 1.3923928 7.0162636e-39
4.1571503 3.5402515 1.3441974 7.4779676e-39
4.2527666 3.5544493 1.3211769 9.2300517e-39
4.3522792 3.5460958 1.3481756 9.5062799e-39
4.4481993 3.5461996 1.3784654 9.6906711e-39
4.5299935 3.5716121 1.3916544 1.0427876e-38
5.0860453 3.5173018 1.3843507 9.6939263e-39
5.1493335 3.550441 1.3559808 9.5106183e-39
5.2449141 3.5529072 1.3266718 9.4195031e-39
5.3401847 3.5524974 1.3149899 9.6046174e-39
4.1963429 3.6038682 1.3863711 6.6482041e-39
4.2557487 3.6365488 1.3570504 7.754916e-39
4.3426666 3.6616778 1.3394536 9.5062785e-39
4.4609528 3.6464286 1.3620958 1.0336401e-38
4.5433378 3.6516571 1.3834522 1.0612627e-38
4.6196933 3.6941953 1.3996074 1.1534584e-38
5.1762671 3.6284478 1.3720188 9.9708776e-39
5.2385559 3.6566455 1.3437053 1.0063792e-38
5.3585334 3.655771 1.3248672 1.0802079e-38
5.4392323 3.6593475 1.3116807 9.6971745e-39
4.3638673 3.7332857 1.362118 8.4002882e-39
4.4400048 3.75986 1.3546413 9.8754225e-39
4.55445 3.7463799 1.3762379 1.0798098e-38
4.6356592 3.753793 1.3927333 1.1166521e-38
5.2652464 3.7400758 1.3620363 1.0616247e-38
5.3506513 3.7516539 1.3299195 1.1908425e-38
5.4516482 3.7523658 1.3128529 1.0065956e-38
5.5040312 3.7502513 1.3022702 8.407163e-39
4.4658589 3.830076 1.3717605 9.2300503e-39
4.5476236 3.8522935 1.3689792 1.0705182e-38
4.6485367 3.8551676 1.3910511 1.1443467e-38
5.2978568 3.8008451 1.3834187 1.1075785e-38
5.3541021 3.8454413 1.3628682 1.2091014e-38
5.4529543 3.8491478 1.3262737 1.1816948e-38
5.5184431 3.8690557 1.313136 9.6971731e-39
4.57482 3.9300928 1.3796816 1.1350909e-38
4.6452851 3.9599376 1.3695941 1.2273585e-38
4.7294455 3.9753556 1.3874854 1.1997e-38
4.858737 3.9862657 1.393512 1.2366144e-38
5.3895135 3.9132557 1.3886878 1.1720791e-38
5.4493041 3.9459026 1.3578465 1.4120386e-38
5.5469518 3.9507616 1.3233089 1.0249985e-38
4.6808052 4.0352101 1.3470924 1.3656878e-38
4.7401958 4.0408769 1.3418089 1.3103706e-38
4.855125 4.0517378 1.3750826 1.2366142e-38
4.9609056 4.0558143 1.3789648 1.2734929e-38
5.0294671 4.0709662 1.3751247 1.3011521e-38
5.4840288 4.0145173 1.3825825 1.5686258e-38
5.5539885 4.045598 1.3600613 1.4580998e-38
5.6398487 4.0660825 1.3277212 1.0248552e-38
4.7597723 4.1380019 1.3471276 1.2550532e-38
4.8492298 4.1421676 1.3416938 1.2458698e-38
4.9579163 4.1427388 1.3579794 1.2182833e-38
5.0440931 4.1474185 1.3511362 1.2182478e-38
5.1321344 4.1531835 1.3639642 1.264238e-38
5.2010694 4.1891136 1.3806562 1.2733856e-38
5.5884962 4.1141686 1.3851305 1.882017e-38
5.6568131 4.1419802 1.3655298 1.347394e-38
5.7273645 4.165072 1.3328577 1.0340749e-38
4.8564053 4.2399359 1.3482473 1.199736e-38
4.9562178 4.2539091 1.3191737 1.2458341e-38
5.0593071 4.2464519 1.3451648 1.1813693e-38
5.1453176 4.2612615 1.3389043 1.2549823e-38
5.23245 4.2586541 1.3635199 1.3287028e-38
5.3093705 4.2763429 1.3940862 1.3378146e-38
5.6856647 4.215776 1.3903457 1.6606775e-38
5.7623396 4.2403741 1.352139 1.1261979e-38
5.813592 4.2832322 1.3313161 1.0432943e-38
4.9526944 4.333745 1.3513528 1.162858e-38
5.0391273 4.3505716 1.3248932 1.1905889e-38
5.1538367 4.3383741 1.3369406 1.1905171e-38
5.2485414 4.3474708 1.3311198 1.2642019e-38
5.3330002 4.3654943 1.3548189 1.3840559e-38
5.7864451 4.3183255 1.3969103 1.2920048e-38
5.8592157 4.3436227 1.3531731 1.0617332e-38
5.9079013 4.3919258 1.3338947 1.0524781e-38
5.0560646 4.4348073 1.3592404 1.1075768e-38
5.1334906 4.4608307 1.3418366 1.0983934e-38
5.2584476 4.4466934 1.3424942 1.1352002e-38
5.351563 4.4518733 1.3262396 1.1535677e-38
5.4339271 4.4641585 1.3475487 1.3471421e-38
5.5075464 4.4955492 1.3944783 1.6237999e-38
5.952116 4.4550166 1.3510104 1.0616614e-38
5.1657562 4.5349774 1.3623433 1.043076e-38
5.2461576 4.5627246 1.3518801 9.9701461e-39
5.3543797 4.5429325 1.3491894 1.0706635e-38
5.4497418 4.5604763 1.3215606 1.107578e-38
5.5368571 4.5638924 1.3443319 1.2641664e-38
5.6218987 4.5929475 1.3950419 1.4116426e-38
5.9885597 4.5260563 1.3646313 1.0985034e-38
6.0149751 4.5669894 1.3416305 1.0893198e-38
5.2637119 4.6350703 1.3635983 9.5091693e-39
5.3495359 4.6602478 1.350028 9.5091721e-39
5.4546332 4.6547556 1.3540317 1.0338574e-38
5.5382376 4.6614819 1.3233309 1.0707361e-38
5.6347117 4.6487074 1.3517684 1.2640588e-38
5.7056441 4.6860571 1.378783 1.4203954e-38
6.0660882 4.6376967 1.34647 1.0893195e-38
6.1124988 4.6931334 1.3500308 1.0893194e-38
5.3644319 4.7370243 1.3546097 8.9567186e-39
5.4523005 4.7467818 1.3264146 9.8779589e-39
5.5534472 4.7417397 1.3296906 1.0154547e-38
5.6432672 4.7468061 1.3148966 1.0983588e-38
5.7596946 4.7778821 1.3521196 1.2363284e-38
6.1431837 4.7534499 1.3423667 1.0801e-38
5.4607234 4.8439317 1.3451998 9.1414714e-39
5.5068297 4.8872256 1.3198094 9.7868408e-39
5.7638822 4.8198152 1.308308 1.0891751e-38
5.8386312 4.8573542 1.3477954 1.1903384e-38
6.1676464 4.8361554 1.3331513 1.1077225e-38
6.214716 4.8610873 1.3797743 1.2273235e-38
5.4931526 4.9051337 1.3815776 8.4039078e-39
5.5467343 4.9501653 1.3439993 9.2336685e-39
5.8624716 4.9036646 1.3109643 1.0707358e-38
5.9412909 4.949008 1.3508866 1.1995217e-38
6.1989422 4.9123468 1.3057146 1.1722227e-38
6.2528729 4.9493299 1.3513035 1.2918967e-38
6.3126364 4.9978848 1.3888633 1.4851105e-38
5.5921011 5.01052 1.3589473 9.0496359e-39
5.6352091 5.0574784 1.3433837 9.141833e-39
5.9936233 5.0003982 1.3489349 1.1904099e-38
6.0579948 5.0570021 1.3503257 1.2088129e-38
6.2875562 5.0120497 1.3266459 1.3473218e-38
6.3362689 5.0550456 1.3556411 1.5774862e-38
5.6827412 5.1207452 1.3557469 9.0496373e-39
5.7237849 5.1675158 1.3447194 8.8656062e-39
6.0971818 5.1131868 1.3150632 1.2827852e-38
6.1502304 5.1417298 1.3468397 1.2273236e-38
6.2121644 5.1856995 1.3682669 1.3194472e-38
6.382576 5.136147 1.3286729 1.3655806e-38
6.4152675 5.1695967 1.3697888 2.0286661e-38
5.7734027 5.2278328 1.3504663 8.9578018e-39
5.8157353 5.2781224 1.3481797 8.9578018e-39
6.2503185 5.2416172 1.3285367 1.3104079e-38
6.3459797 5.262948 1.3400917 1.2182118e-38
6.4374676 5.2472973 1.3526769 1.7248176e-38
5.8656511 5.3409734 1.353723 8.8659621e-39
5.9081097 5.3878994 1.3311049 9.5109714e-39
6.3586068 5.3258548 1.348534 1.3103717e-38
6.466239 5.3403358 1.3534626 1.5222402e-38
6.5121527 5.3760071 1.3698099 1.71567e-38
5.9522395 5.4467716 1.3495983 9.2340244e-39
6.4776635 5.4247794 1.3466635 1.2460146e-38
6.5486598 5.449472 1.3648282 1.3380298e-38
5.9945693 5.5027795 1.3534669 9.4184142e-39
6.0422592 5.5574212 1.3455977 9.4184128e-39
6.0872579 5.620594 1.3604118 9.4180527e-39
6.121418 5.6620507 1.3399355 8.9574333e-39
6.172647 5.7360225 1.3424593 8.5890053e-39
6.2103457 5.7841759 1.3502357 8.6808394e-39
6.2442427 5.8259187 1.3648312 9.0492618e-39
2.5905747 -1.0618024 1.4077935 6.6304749e-39
2.6323571 -1.020365 1.4152137 6.8148676e-39
2.6820562 -0.95760375 1.4329838 6.9999721e-39
2.7037153 -0.97382963 1.4110168 6.5382779e-39
2.6235135 -0.85141951 1.4134539 1.1701937e-38
2.6571238 -0.74753255 1.4260358 1.2165813e-38
2.7091444 -0.70587593 1.4500346 7.4663845e-39
2.7550893 -0.66395491 1.4505959 8.1110252e-39
2.8323116 -0.61948591 1.4413719 1.096763e-38
2.8780911 -0.58494395 1.4432341 1.1520796e-38
2.9415858 -0.54193348 1.4542063 1.2074692e-38
3.0249929 -0.50716931 1.450593 1.1152742e-38
3.0753264 -0.47030681 1.447659 9.4946743e-39
3.120589 -0.41995007 1.4568213 9.5875916e-39
3.1378875 -0.34849894 1.4523059 1.0509547e-38
3.0920825 -0.21443561 1.485464 1.1800647e-38
3.1266143 -0.25381953 1.4493631 1.170881e-38
2.9867098 -0.11155371 1.4589275 1.2446378e-38
3.0484405 -0.15937507 1.449576 1.2261985e-38
3.1004367 -0.19771811 1.4246333 1.216979e-38
2.8648334 -0.022441311 1.4489484 1.3551645e-38
2.938206 -0.07293921 1.4502597 1.28148e-38
2.7777085 0.056992542 1.4541155 1.3459809e-38
2.813122 0.009463164 1.4434111 1.3644201e-38
2.691314 0.18809524 1.4287606 1.4197017e-38
2.7365689 0.13824297 1.4495338 1.392043e-38
2.5882304 0.26575789 1.4063872 1.4657994e-38
2.6543639 0.22607747 1.4271183 1.4381408e-38
2.9853466 0.56403464 1.4040416 1.6319357e-38
3.0584488 0.57759178 1.4211781 1.6227881e-38
3.144135 0.58278561 1.4221131 1.5767623e-38
3.2495108 0.58801919 1.4339296 1.4385049e-38
3.3295515 0.59511632 1.4332973 1.392479e-38
3.076822 0.63039166 1.4568832 1.6596302e-38
3.1516042 0.64085954 1.4648138 1.6504468e-38
3.2511451 0.64622194 1.4606738 1.5675429e-38
3.3561389 0.64167655 1.4519134 1.4938224e-38
3.4418135 0.65913743 1.4464129 1.4477608e-38
3.5240219 0.69115454 1.4540594 1.4385771e-38
3.3662972 0.70824391 1.4903923 1.6136406e-38
3.4372492 0.71402264 1.4943247 1.6044214e-38
3.571821 0.71875685 1.4440466 1.4570165e-38
3.6461031 0.75493968 1.4541727 1.466272e-38
3.7399352 0.7914443 1.4496979 1.5031504e-38
3.7869902 0.80847424 1.4549977 1.5215896e-38
3.853225 0.83146608 1.4460437 1.5492483e-38
3.9490502 0.86719495 1.4421129 1.5953821e-38
4.0107355 0.89277965 1.4494263 1.6046016e-38
4.0656028 0.91933417 1.4491547 1.6138214e-38
4.1531525 0.96563953 1.449715 1.6230769e-38
4.2103086 0.99794471 1.448692 1.6415161e-38
2.5673733 1.023361 1.4000727 7.0072308e-39
2.6541736 1.0693878 1.4329996 1.217019e-38
2.7427988 1.0772328 1.4574003 1.6781414e-38
2.8221846 1.0805435 1.4883494 1.7058361e-38
4.2604127 1.0272536 1.4495516 1.6322965e-38
4.3446741 1.0752592 1.4435308 1.6507356e-38
2.6741085 1.1219488 1.452471 1.2907041e-38
2.7522383 1.1468459 1.4792889 1.6872535e-38
2.8283892 1.143814 1.4931233 1.7058005e-38
4.3882613 1.1034318 1.4655837 1.6506997e-38
4.4486923 1.1376895 1.4496453 1.6599192e-38
4.5263333 1.1843011 1.4421188 1.6876136e-38
2.7407055 1.2105733 1.4901359 2.148195e-38
4.5733228 1.2191072 1.4490856 1.678394e-38
4.6337667 1.2695745 1.4488763 1.678394e-38
4.6818247 1.3181562 1.4430282 1.6876136e-38
4.7369123 1.3663853 1.453589 1.6414798e-38
4.7857814 1.4121764 1.4397283 1.659883e-38
4.835093 1.4613001 1.4544184 1.6046016e-38
4.8651695 1.5524924 1.4507089 1.5862347e-38
2.9783401 1.6565719 1.4760953 1.9915711e-38
3.0257699 1.6830345 1.4754064 2.1668142e-38
4.8638568 1.650152 1.44923 1.5401366e-38
3.0594578 1.722721 1.4869691 2.0929501e-38
3.1263006 1.7526881 1.4956453 2.2404986e-38
4.8730493 1.7453767 1.4370047 1.5401367e-38
4.9111047 1.7690023 1.4839417 1.4663804e-38
4.8846197 1.8427519 1.4277399 1.5954182e-38
4.9094124 1.8568878 1.473564 1.5124422e-38
4.9353547 1.9480329 1.4518287 1.5954182e-38
4.9825878 2.0278873 1.4509501 1.6231129e-38
5.0124664 2.078588 1.4565626 1.6139294e-38
5.0358973 2.1531968 1.453072 1.6876502e-38
4.8850603 2.2925115 1.4216224 1.7982858e-38
4.9553919 2.2771335 1.4366317 1.8997007e-38
5.0289855 2.2410049 1.4587828 1.7705905e-38
4.8851681 2.3292348 1.4402386 1.6785033e-38
4.9169464 2.3545513 1.4674487 1.6231859e-38
4.6856794 2.499764 1.4973325 5.2623858e-39
4.7193885 2.4987667 1.4959413 5.3549388e-39
4.9555168 2.4320252 1.4533812 1.5679047e-38
5.0202045 2.483809 1.4476724 1.5310266e-38
4.6601763 2.5545123 1.452052 5.7240926e-39
4.7465448 2.5165544 1.4419235 5.8152051e-39
4.8403168 2.535188 1.4398029 6.1839862e-39
4.9411964 2.5767362 1.442497 6.3690963e-39
5.0710182 2.5249331 1.4519203 1.4112082e-38
5.1322317 2.5748675 1.447736 1.3558908e-38
4.5977688 2.6475794 1.4535019 5.8180903e-39
4.608232 2.6453083 1.4485418 5.9102846e-39
4.9975333 2.6048574 1.427563 6.3698194e-39
5.0533743 2.6277063 1.4535259 6.6460433e-39
5.1706433 2.649014 1.4604208 1.0148754e-38
5.2270851 2.6697869 1.4467597 1.1808634e-38
4.5955458 2.7726781 1.4371381 6.6492859e-39
4.6035423 2.7335496 1.4563748 6.4641758e-39
5.2604609 2.7090747 1.4158189 8.8591014e-39
4.5879598 2.8567843 1.4464772 7.2946539e-39
4.60326 2.8259628 1.4876039 7.0177027e-39
4.5675902 2.94136 1.4495941 8.1244146e-39
3.7505016 3.0832269 1.4686054 1.4755998e-38
3.8108814 3.0923126 1.4862684 1.4295381e-38
4.59168 3.0149593 1.4695548 8.4002812e-39
4.6263957 3.0579631 1.4445783 8.1240573e-39
3.7409966 3.1374412 1.4436384 1.4018792e-38
3.850615 3.1370111 1.4465549 1.2360351e-38
3.943922 3.1671784 1.4742076 1.2637298e-38
4.0198879 3.1813262 1.4899192 1.3190471e-38
4.6779828 3.1332374 1.462643 8.6761507e-39
4.725647 3.1737642 1.4435351 8.6768737e-39
3.7793014 3.23153 1.4502707 1.2820609e-38
3.8312519 3.2673082 1.4329325 9.7788787e-39
3.9686787 3.2189109 1.4378911 9.0427499e-39
4.0477901 3.2544961 1.4604987 9.4118926e-39
4.1096249 3.2803819 1.4950696 8.397019e-39
4.7612944 3.2337072 1.4708136 8.8605419e-39
4.830472 3.271342 1.4368705 8.5854026e-39
3.8623416 3.3365083 1.4622993 1.1438036e-38
3.9347861 3.359036 1.4311781 7.2906869e-39
4.0892797 3.3066134 1.4218113 8.2144326e-39
4.1569834 3.34236 1.4518619 8.2144354e-39
4.2489104 3.3742349 1.4579227 7.4772361e-39
4.334837 3.3898048 1.4612511 7.1088179e-39
4.4672503 3.3746295 1.4820499 8.1226111e-39
4.5190196 3.3771994 1.4834892 9.5005135e-39
4.8649812 3.3276131 1.46557 8.8612664e-39
4.9315634 3.3685498 1.4348667 8.9549082e-39
3.9547904 3.4354858 1.4790043 9.5948475e-39
4.0371304 3.4606936 1.4471545 6.5538449e-39
4.2755294 3.408757 1.4088216 7.5705136e-39
4.3606873 3.4179487 1.4300498 7.477962e-39
4.4478712 3.4314165 1.4444368 7.9393003e-39
4.5379353 3.4564817 1.444279 9.5959461e-39
4.6215425 3.4789591 1.4790829 1.0974923e-38
4.9734917 3.427527 1.4598622 9.2307748e-39
5.0259681 3.4718153 1.4405395 9.5999202e-39
4.0860209 3.5094314 1.456291 6.5538463e-39
4.1409984 3.5610204 1.4529423 6.5542064e-39
4.482276 3.5074129 1.4061073 9.0456576e-39
4.5550385 3.536809 1.4160551 1.0150928e-38
4.6399016 3.5589244 1.4418082 1.0978525e-38
4.7278953 3.5965271 1.47333 1.1713929e-38
5.0741801 3.5287521 1.4492698 9.7843129e-39
5.1202617 3.5788434 1.4435441 1.0060903e-38
4.186625 3.6127751 1.4663961 6.4620108e-39
4.2399797 3.6609812 1.446089 6.4630912e-39
4.6500225 3.638541 1.4170519 1.1440949e-38
4.7445292 3.6531506 1.4499571 1.2268186e-38
4.8119755 3.6790287 1.4763767 1.2173827e-38
5.1719308 3.638932 1.4490837 1.0521522e-38
5.2106452 3.685657 1.4508553 1.09825e-38
4.2890925 3.7136846 1.456434 6.4630912e-39
4.3393741 3.7618384 1.4483758 6.4634527e-39
4.6745148 3.7234037 1.4117151 1.1718976e-38
4.7512131 3.7515612 1.4280843 1.227179e-38
4.8393788 3.7597606 1.4522072 1.3006836e-38
4.9102478 3.7801349 1.4805551 1.410994e-38
5.2583327 3.7476513 1.447224 1.1351644e-38
4.3854723 3.8198628 1.4690887 6.2790601e-39
4.4414897 3.858207 1.4462942 6.7400424e-39
4.5098157 3.899107 1.4118614 7.4790494e-39
4.6933017 3.8207572 1.4015955 1.1443107e-38
4.7599554 3.8550074 1.4139167 1.1995922e-38
4.8555408 3.8489664 1.4361497 1.3009352e-38
4.9324861 3.8667254 1.4493394 1.3652925e-38
5.0225134 3.8967586 1.4890436 1.4663118e-38
5.2985802 3.8013644 1.4638731 1.2273601e-38
5.3357496 3.8501525 1.4510306 1.2181402e-38
4.4821496 3.9169157 1.4760731 6.3716172e-39
4.5465512 3.9552605 1.4499202 7.2017422e-39
4.6079855 3.9939508 1.4193172 8.769791e-39
4.7636261 3.9383101 1.4073027 1.2088478e-38
4.8501654 3.9562924 1.4163976 1.2365423e-38
4.946959 3.9509296 1.4334834 1.3194469e-38
5.0387387 3.9667311 1.4542335 1.4206462e-38
5.1225224 3.9928279 1.4928267 1.576875e-38
5.3865395 3.9146309 1.4422616 1.2273959e-38
5.4306087 3.9656677 1.4515116 1.2550183e-38
4.5833998 4.0184584 1.4887365 6.5560099e-39
4.6482458 4.0499139 1.4552511 7.9396674e-39
4.7365127 4.0701475 1.416302 1.1166877e-38
4.8373384 4.0198045 1.405045 1.2273947e-38
4.9659276 4.0237985 1.4180348 1.2827123e-38
5.039844 4.0309663 1.423645 1.3563969e-38
5.1366577 4.0602746 1.4502157 1.4759994e-38
5.2117329 4.0849209 1.4887497 1.669178e-38
5.4677486 4.0419669 1.473402 1.789246e-38
5.5238342 4.0632067 1.4537816 1.3103353e-38
4.693347 4.1085691 1.493019 6.8329597e-39
4.7575245 4.150661 1.4526496 9.3229634e-39
4.8043981 4.195384 1.4624977 9.0463779e-39
5.159286 4.124526 1.4170773 1.4024233e-38
5.2355347 4.1569533 1.4497116 1.512842e-38
5.3055077 4.1890378 1.4849194 1.6141846e-38
5.4938583 4.1118665 1.4940443 2.3050707e-38
5.5611877 4.1307697 1.4766186 1.8630381e-38
5.6242094 4.168292 1.4535381 1.6603529e-38
4.8484507 4.2399526 1.4532801 1.0152727e-38
4.9037218 4.2962666 1.4856583 9.5995517e-39
5.2694955 4.225214 1.41593 1.3839486e-38
5.3335834 4.2527018 1.4489592 1.5312092e-38
5.4213576 4.2961507 1.4938816 1.6785786e-38
5.5851927 4.2003703 1.4987392 2.2958873e-38
5.6620541 4.253377 1.4688302 2.0840184e-38
5.7136612 4.2807336 1.4450999 1.9734922e-38
4.9418845 4.3335567 1.4470392 1.0614065e-38
5.3693905 4.3053122 1.4292188 1.4390859e-38
5.4341602 4.3533015 1.4458216 1.5496483e-38
5.5130072 4.3886623 1.4912983 1.7706295e-38
5.6747937 4.332067 1.4644284 2.3050349e-38
5.7431469 4.3528457 1.4396127 2.2038004e-38
5.8312278 4.3821225 1.4158777 1.5407516e-38
5.0396943 4.4335923 1.4468209 1.033784e-38
5.4842162 4.4488177 1.4083477 1.6420592e-38
5.5513272 4.4623652 1.4536463 1.6418434e-38
5.7651029 4.4380813 1.4630909 2.3050349e-38
5.8467155 4.4495139 1.4349778 1.8445994e-38
5.9320388 4.4697447 1.4154788 1.1906977e-38
5.1544104 4.5493817 1.4462835 1.015381e-38
5.5676408 4.5298834 1.413703 1.6883367e-38
5.6488547 4.5622625 1.45293 1.7249268e-38
5.8577027 4.5452666 1.4592344 2.2406062e-38
5.9590054 4.5459747 1.4320726 1.4762145e-38
6.0125699 4.5835843 1.4247566 1.1631108e-38
5.2484794 4.6476889 1.4478897 9.7853905e-39
5.6851473 4.6323133 1.4209943 1.5591912e-38
5.7493386 4.6555581 1.4580183 1.7342541e-38
5.813314 4.6906223 1.4844739 1.8634351e-38
5.9525819 4.6508079 1.453506 2.2498618e-38
6.0446539 4.6459761 1.4392096 1.5867766e-38
6.1111369 4.6870084 1.4341574 1.2551621e-38
5.3427806 4.7497454 1.4490659 9.5091651e-39
5.7628808 4.7081223 1.4134032 1.4667441e-38
5.8418097 4.7449517 1.4579923 1.6697173e-38
5.9428968 4.7569532 1.4763079 1.9369028e-38
6.0460691 4.7523527 1.4497832 2.2406782e-38
6.1525674 4.7551036 1.4379364 1.6327662e-38
6.2111392 4.7831278 1.44718 1.2643458e-38
5.3945427 4.804111 1.4125562 9.2332985e-39
5.435842 4.8521094 1.4476985 9.1407456e-39
5.8717542 4.8083396 1.4231755 1.5679438e-38
5.9563808 4.8585682 1.4577217 1.6325878e-38
6.0807033 4.8211198 1.4541631 2.2590093e-38
6.1363959 4.8553925 1.4399652 2.2866318e-38
6.2530398 4.8545241 1.4412807 1.5681937e-38
6.3135772 4.8878164 1.4634529 1.4024229e-38
5.4946537 4.9170451 1.4585987 9.0485485e-39
5.5410948 4.9680052 1.4427791 8.5879333e-39
5.9764409 4.9084654 1.4312878 1.5585092e-38
6.0589652 4.9359856 1.4773058 1.8720793e-38
6.1786637 4.9256229 1.4592735 2.3142185e-38
6.2465715 4.9589663 1.4309105 2.2037641e-38
6.3275986 4.9628363 1.4303229 1.9367224e-38
5.5856142 5.0196042 1.444464 8.4035435e-39
5.625566 5.0695925 1.4475648 8.2195123e-39
6.0847816 5.010603 1.4440771 1.5585795e-38
6.1361251 5.0378113 1.4624739 1.7889956e-38
6.2691879 5.0326447 1.4580318 2.2958154e-38
6.3290787 5.0696149 1.4298455 2.212912e-38
5.6770639 5.1318884 1.4423019 8.126958e-39
5.7202806 5.1820331 1.4436141 8.1273195e-39
6.1758218 5.1212044 1.4300501 1.4205394e-38
6.2287393 5.1246667 1.4737366 1.7705569e-38
6.3673034 5.1413689 1.44004 2.231315e-38
6.4043388 5.1921439 1.4198103 2.1759981e-38
5.7724028 5.2445941 1.4442014 8.403905e-39
5.8107896 5.2921624 1.4335309 8.6812107e-39
6.2863145 5.2219033 1.4329563 1.4667084e-38
6.3431244 5.2538486 1.4565787 1.650847e-38
6.4449511 5.2528601 1.4500935 2.2036925e-38
5.8545928 5.34656 1.4457642 8.5882948e-39
6.3900986 5.3035159 1.4566038 1.6969083e-38
6.4776497 5.3399644 1.4588429 1.9918241e-38
6.5162396 5.3696756 1.448689 2.083947e-38
5.8987184 5.4062829 1.4382032 8.9570774e-39
5.9389758 5.4531288 1.4470866 8.6804891e-39
6.4952016 5.4001174 1.4149691 1.8076506e-38
6.5378175 5.4261169 1.4093064 2.0841989e-38
5.9882655 5.5183034 1.4496528 8.5886522e-39
6.0255713 5.5689182 1.4471331 8.4042609e-39
6.0738821 5.6346622 1.4461763 8.127674e-39
6.1125288 5.6809235 1.4414575 8.035477e-39
6.1511297 5.7328382 1.4508588 7.94328e-39
6.2095251 5.7843099 1.4244009 8.2198655e-39
6.2651448 5.8443341 1.4204427 8.8648733e-39
2.7782211 -0.6299032 1.5078182 4.5175747e-39
2.8341463 -0.61200905 1.5244555 1.0325881e-38
2.8772528 -0.58879316 1.534565 1.0970886e-38
2.9475162 -0.55061954 1.5484301 1.0878691e-38
3.0197523 -0.51219767 1.5516822 1.0694661e-38
3.0709689 -0.48157051 1.5501202 1.0509909e-38
3.119571 -0.43047693 1.5502273 1.0048571e-38
3.0839205 -0.32626072 1.5721138 1.0785776e-38
3.1208642 -0.3594614 1.5405319 1.0509547e-38
3.0641704 -0.24716856 1.5541259 1.1431506e-38
3.1062262 -0.27639106 1.5099312 1.1431504e-38
2.9807217 -0.12033714 1.553795 1.2260908e-38
3.0285227 -0.17046247 1.5470849 1.1892485e-38
2.8609748 -0.024711011 1.5311671 1.2998473e-38
2.9343746 -0.071960099 1.5476062 1.2629689e-38
2.7725432 0.038562033 1.5070283 1.3459809e-38
2.8045311 0.0011989312 1.5071459 1.3644201e-38
2.7637258 0.11227982 1.5050231 1.3366899e-38
3.1745567 0.69334298 1.5053575 1.6872889e-38
3.2347114 0.69396907 1.5072523 1.6688861e-38
3.5212801 0.69746786 1.5011618 1.3924431e-38
3.1669722 0.72647464 1.5232711 1.6781054e-38
3.2591462 0.74596536 1.5436175 1.6689578e-38
3.3471024 0.75512606 1.5430334 1.6412993e-38
3.4491043 0.76289606 1.5335118 1.6228963e-38
3.5496898 0.74878007 1.5228046 1.5399202e-38
3.6478598 0.76009947 1.5327008 1.4477606e-38
3.7298965 0.78827101 1.5391117 1.4201382e-38
3.2610974 0.82530636 1.5781765 1.668994e-38
3.3527694 0.8375985 1.5860581 1.6782134e-38
3.4514461 0.83760792 1.5889084 1.6413351e-38
3.5503137 0.83706766 1.5768343 1.6597744e-38
3.6478343 0.85776514 1.5797179 1.650519e-38
3.7509913 0.84353483 1.5793695 1.5583954e-38
3.8488195 0.83297408 1.5498095 1.4386135e-38
3.9472306 0.86967176 1.5503688 1.4570528e-38
4.0068259 0.89190954 1.5589973 1.4663082e-38
3.1562951 0.97993141 1.5824962 1.7887398e-38
3.2220211 0.99029595 1.5920261 1.7426783e-38
3.6714165 0.90197134 1.5995556 1.6598107e-38
3.7252584 0.90178299 1.5988717 1.6413353e-38
4.0655432 0.91838747 1.5456212 1.5031867e-38
4.149549 0.96116853 1.5518585 1.5216257e-38
4.2069125 0.9917466 1.545301 1.5308813e-38
2.8724184 1.0856031 1.5109845 1.6966524e-38
