# .PCD v0.7 - Point Cloud Data file format
VERSION 0.7
FIELDS x y z rgb
SIZE 4 4 4 4
TYPE F F F F
COUNT 1 1 1 1
WIDTH 1022
HEIGHT 1
VIEWPOINT 0 0 0 1 0 0 0
POINTS 1022
DATA ascii
2.4492121 -0.95254242 -0.63618273 2.1172471e-39
2.5299263 -0.94791323 -0.6366601 5.8054184e-39
1.2795408 -0.82434839 -0.61603892 3.2200003e-39
1.3179163 -0.84318697 -0.64439362 9.3801546e-39
1.4251688 -0.80947608 -0.69010544 4.7883924e-39
2.197989 -0.89327002 -0.67222881 6.4536661e-40
2.2673831 -0.88877946 -0.68938351 1.8438846e-40
2.3363423 -0.85492146 -0.68135679 6.4392467e-40
2.4526834 -0.84363568 -0.65464592 3.5930932e-39
2.5090599 -0.89320272 -0.64257187 5.1611364e-39
1.2807989 -0.77786034 -0.61356747 1.747394e-39
1.3413678 -0.75474548 -0.63359725 4.2334264e-39
1.4323037 -0.77011991 -0.681575 6.4410684e-39
2.3732808 -0.73808777 -0.66445845 5.1589742e-39
2.4152529 -0.77560401 -0.64419752 3.5930946e-39
1.3500118 -0.66113073 -0.61144286 1.8413917e-39
1.4041977 -0.6408965 -0.62832111 2.3934794e-39
2.2600074 -0.62423122 -0.65145195 6.5429834e-39
2.3192077 -0.67423993 -0.64627171 9.0297361e-39
2.1660903 -0.53515035 -0.65140826 8.2947004e-39
2.2134612 -0.58528805 -0.65242791 6.174568e-39
2.0704308 -0.42732462 -0.65373695 1.2716101e-38
2.1175911 -0.4757894 -0.64590138 1.0690697e-38
1.9784788 -0.31894431 -0.65143317 4.1426516e-39
2.0196102 -0.36889464 -0.64894152 7.7346617e-39
1.8710083 -0.22633332 -0.65140754 8.7459227e-39
1.9455229 -0.27833098 -0.6479485 3.4054481e-39
1.7704008 -0.13003993 -0.65195066 1.2257288e-38
1.8158921 -0.17922953 -0.64461583 1.3729887e-38
1.6722827 -0.026327405 -0.65229732 1.1522249e-38
1.723967 -0.076134123 -0.64750081 1.0876164e-38
1.5703763 0.074940421 -0.65026331 1.6498988e-38
1.6268232 0.024406077 -0.65154749 9.3109949e-39
1.4784074 0.18355353 -0.64598644 7.6500485e-39
1.5237769 0.13490829 -0.65506822 7.8351572e-39
1.3786778 0.27755544 -0.63408434 1.1889586e-38
1.4349921 0.23207083 -0.65699118 4.9760221e-39
1.2719909 0.37479472 -0.61279273 1.6776292e-38
1.3258917 0.32664239 -0.6270358 1.4840555e-38
1.235522 0.41836801 -0.60425729 1.7053595e-38
2.4495773 -1.0032197 -0.53873134 2.6740404e-39
2.3808451 -0.96609032 -0.5339247 1.2911046e-39
2.4363432 -0.94153905 -0.5348531 2.5814846e-39
2.5090981 -0.95014733 -0.54630274 5.348064e-39
1.2509102 -0.81409812 -0.58561444 1.1067147e-39
2.3993115 -0.80201828 -0.53996253 3.3168749e-39
2.4291542 -0.85165471 -0.54379892 2.4892848e-39
2.5007124 -0.89544064 -0.59705549 5.8075862e-39
1.1794891 -0.76955616 -0.51578176 2.9520762e-39
1.2490354 -0.74121565 -0.54864216 2.3067096e-39
1.3087115 -0.7143389 -0.59007263 1.0145219e-39
2.3669329 -0.74182659 -0.54305923 8.662764e-39
2.4123888 -0.78736025 -0.57493788 4.6990778e-39
1.2825134 -0.65667349 -0.52638835 3.0450019e-39
1.3220024 -0.64376843 -0.57472551 1.751361e-39
2.2731996 -0.61842984 -0.5529483 9.5857909e-39
2.3256993 -0.66807592 -0.54940093 1.1981791e-38
1.2900459 -0.59451383 -0.51418346 2.5804042e-39
1.3210039 -0.5883888 -0.52166128 2.3938396e-39
2.1733236 -0.53120106 -0.55428118 1.0046773e-38
2.2213786 -0.57825756 -0.54154074 8.4798119e-39
2.076474 -0.4213604 -0.54966629 1.3731694e-38
2.1260674 -0.47146526 -0.5508303 8.3872534e-39
1.982933 -0.31370974 -0.5531351 4.5117901e-39
2.0187535 -0.36323109 -0.5490225 8.5647769e-39
1.8744344 -0.22040999 -0.55297047 9.0221481e-39
1.9467498 -0.27168849 -0.54880995 3.2214184e-39
1.7776551 -0.12467287 -0.55083209 1.1518644e-38
1.8262029 -0.17450826 -0.54940295 1.3452219e-38
1.6775653 -0.019072492 -0.55089694 1.5761068e-38
1.7297678 -0.067499451 -0.54786456 1.2717905e-38
1.5758071 0.078609236 -0.55441761 1.7328027e-38
1.6282191 0.029332111 -0.54600847 1.6591186e-38
1.4795749 0.18001431 -0.5693152 1.7606416e-38
1.5233775 0.14070496 -0.54339057 1.401116e-38
1.379584 0.27949667 -0.57398784 1.7146162e-38
1.4391999 0.2434783 -0.54411477 1.0048567e-38
1.5019399 0.20280601 -0.51474583 3.0417243e-39
1.274471 0.37705645 -0.54933983 1.7053236e-38
1.3408639 0.32801223 -0.54941547 1.0140757e-38
1.1846303 0.47785008 -0.53999716 4.0558664e-39
1.2282295 0.43092722 -0.54796213 1.272362e-38
1.0985552 0.59803098 -0.52071631 1.5116776e-38
1.1373264 0.54405826 -0.53142244 6.2674741e-39
1.0718907 0.63011515 -0.51417673 1.6776652e-38
2.4778566 -1.0079365 -0.49801841 3.9662282e-39
2.5412176 -1.0126493 -0.44534382 4.6108661e-39
2.3721805 -0.97774839 -0.49791518 1.3840233e-39
2.484056 -0.91555846 -0.48554277 3.965868e-39
2.5485423 -0.95901948 -0.45390326 5.4402596e-39
2.6061261 -0.97139078 -0.41267487 4.6093989e-39
1.1152945 -0.80301172 -0.4213039 6.4536661e-40
2.4567788 -0.84013593 -0.45770794 5.3473395e-39
2.5215845 -0.88236165 -0.42938691 1.0508465e-38
1.152953 -0.75796181 -0.44414017 1.0141505e-39
1.2380468 -0.71584332 -0.45212996 6.4572814e-40
2.3796215 -0.73171425 -0.45982572 6.4529514e-39
2.4206369 -0.77695483 -0.44353503 7.3745476e-39
1.2799578 -0.65697223 -0.4509432 1.6598857e-39
1.346248 -0.64817542 -0.44453904 3.8718493e-39
1.4123818 -0.62902796 -0.44221833 6.1760156e-39
2.2778242 -0.61639875 -0.44977054 1.124567e-38
2.3302939 -0.66675216 -0.44924721 1.3089941e-38
1.2688085 -0.5835408 -0.45118186 2.7629822e-39
1.3318717 -0.57987255 -0.47169515 5.2518971e-39
2.1762757 -0.52153271 -0.44907814 1.2719e-38
2.2297256 -0.57101697 -0.45181471 1.1060202e-38
2.0872445 -0.42030609 -0.45655087 1.5299742e-38
2.1253777 -0.467675 -0.44493493 1.4195204e-38
1.9897983 -0.31100243 -0.44946203 5.3411864e-39
2.0185156 -0.3580519 -0.45031187 1.0040261e-38
1.8715606 -0.21478523 -0.45278254 9.5756806e-39
1.9474288 -0.26626483 -0.44896311 3.2214198e-39
1.7868847 -0.12074935 -0.45396298 8.9404061e-39
1.8292741 -0.16918798 -0.44927758 1.3360379e-38
1.6819581 -0.012810497 -0.45024294 1.2445282e-38
1.7422535 -0.062081885 -0.45238307 9.6783229e-39
1.5814898 0.085021764 -0.45245853 1.732875e-38
1.6330165 0.035861868 -0.44907176 1.2444203e-38
1.4936074 0.19294085 -0.43930638 1.7144716e-38
1.5287509 0.14591938 -0.44983029 1.336435e-38
1.3861006 0.2841149 -0.44161204 1.7329827e-38
1.4473834 0.24034689 -0.44712895 1.2351283e-38
1.502254 0.20256582 -0.48805481 2.30236e-39
1.2777531 0.37821713 -0.452869 1.7145073e-38
1.3405119 0.3306123 -0.44468868 1.5485922e-38
1.1922646 0.49367952 -0.47493136 1.7053239e-38
1.229128 0.44868165 -0.44967306 1.548628e-38
1.0988252 0.59868479 -0.48051226 1.5486273e-38
1.1429797 0.54910898 -0.45072186 1.1891748e-38
1.201041 0.50086242 -0.41184172 4.8874306e-39
0.96854085 0.67798322 -0.43502238 1.2529883e-38
1.0493659 0.63806301 -0.45147389 1.1338211e-38
1.1069871 0.60871667 -0.42092067 2.4892722e-39
0.94603652 0.74184978 -0.43450677 8.9324636e-39
2.5606592 -1.0110756 -0.38926989 5.3473241e-39
2.4881692 -0.93454015 -0.32273605 1.1154197e-38
2.5271032 -0.94392753 -0.36825502 1.0139684e-38
2.6087711 -0.98117495 -0.39731175 5.0700099e-39
1.0953032 -0.80131918 -0.39372778 5.5317098e-40
1.1009089 -0.80000228 -0.39864126 5.5317098e-40
2.4728911 -0.84227842 -0.34707201 1.1985034e-38
2.5075278 -0.88734788 -0.37551358 1.2905184e-38
1.0670699 -0.77581185 -0.334286 1.38221e-39
1.1495037 -0.75386292 -0.35588136 3.1346444e-39
1.2285453 -0.72069997 -0.34514248 4.7023274e-39
2.3843431 -0.71821022 -0.35676369 9.7727059e-39
2.4246871 -0.76600945 -0.34423161 9.1276995e-39
0.7166208 -0.62072605 -0.32993189 1.262389e-38
1.2567354 -0.65515697 -0.34686616 3.9633247e-39
1.334836 -0.63409734 -0.35115469 5.3462549e-39
1.4103092 -0.65003747 -0.38206512 5.7150374e-39
2.2826018 -0.61953288 -0.35063103 1.2906989e-38
2.3314688 -0.66735858 -0.35171768 1.1984672e-38
0.69979388 -0.56449401 -0.32172155 1.8061243e-38
0.70796329 -0.58362037 -0.31744617 1.170086e-38
1.2614228 -0.59622461 -0.39637631 2.7626179e-39
2.189748 -0.51297665 -0.35618889 7.0061224e-39
2.22577 -0.56017256 -0.34875366 6.7295341e-39
2.0876853 -0.41200435 -0.34965318 1.3273609e-38
2.1281004 -0.458781 -0.34880552 1.1062367e-38
1.9923588 -0.31599069 -0.34861013 5.7096004e-39
2.0291719 -0.36383244 -0.35124886 1.2808284e-38
1.8696322 -0.20998791 -0.35718152 9.0253865e-39
1.9433448 -0.26017329 -0.34880412 3.2225002e-39
1.7869096 -0.12055162 -0.35752255 1.6130569e-38
1.8309313 -0.16691089 -0.34394771 1.3360013e-38
1.6862205 -0.010427853 -0.37252074 1.7236921e-38
1.7409135 -0.054848541 -0.34747896 1.3273599e-38
1.5870703 0.090552211 -0.35654762 1.5854701e-38
1.6432685 0.043186072 -0.34922823 1.1891387e-38
1.7030048 0.0027426344 -0.32606432 6.4536647e-39
1.498284 0.19847052 -0.33524314 7.7415182e-39
1.5346615 0.15003774 -0.3512547 1.4011517e-38
1.3920214 0.29161313 -0.3444373 1.4287023e-38
1.4467944 0.25186095 -0.35272712 6.7313348e-39
1.505008 0.20444545 -0.3560234 1.032552e-38
1.2744631 0.3841393 -0.34926817 1.4562522e-38
1.3517556 0.34162113 -0.35317039 7.0965075e-39
1.4053578 0.30683231 -0.35555577 4.2427772e-39
1.1908387 0.49031895 -0.31828925 9.6714817e-39
1.2261062 0.44636175 -0.352696 7.7407923e-39
1.0927401 0.59089786 -0.33342168 9.2108665e-39
1.1452041 0.54738957 -0.34793803 5.9869146e-39
1.2017053 0.50117791 -0.37311226 1.1974558e-39
0.96861863 0.67658365 -0.36424071 1.0133896e-38
1.0510762 0.64551204 -0.34243175 9.5799952e-39
1.1071345 0.60909635 -0.36890981 3.7763915e-39
0.95222473 0.74035156 -0.34568739 1.0039524e-38
1.0358948 0.74169052 -0.30918607 8.2917801e-39
0.99071741 0.81694138 -0.31439546 9.4885212e-39
1.0273781 0.81551671 -0.3074728 6.9103072e-39
1.9847608 -1.4123956 -0.21255773 6.9967477e-39
2.0397241 -1.4153337 -0.21825598 1.2803227e-38
2.1710069 -1.4320459 -0.21625681 1.6573493e-39
2.2377558 -1.4114211 -0.21389911 4.4235756e-39
1.7650707 -1.3364038 -0.21153466 3.0417257e-39
1.8388388 -1.3457304 -0.2106021 3.6852916e-39
1.9316095 -1.3771979 -0.21538632 4.235213e-39
2.0529833 -1.3786492 -0.23007913 8.8435161e-39
2.1560066 -1.3521713 -0.22961468 4.1473516e-39
2.2231312 -1.3723254 -0.23034407 7.4656684e-39
1.7647483 -1.2887937 -0.22344972 2.5800287e-39
1.8748373 -1.224234 -0.22779858 9.2159196e-40
1.9417868 -1.2568399 -0.23130196 5.5317098e-40
2.0857484 -1.2178825 -0.2418911 8.9418747e-39
2.1303582 -1.2625344 -0.23577711 9.1255457e-39
1.7636939 -1.1214281 -0.22341919 7.372007e-40
1.8376417 -1.1719815 -0.22425963 7.3684197e-40
2.0763071 -1.1959786 -0.22204833 9.6794383e-39
1.5872161 -1.0111737 -0.2297661 1.8439084e-39
1.6474617 -1.0425208 -0.22500454 1.6591556e-39
1.7672213 -1.0320475 -0.22530076 5.5310021e-39
1.8056476 -1.0248595 -0.21026534 6.6373469e-39
1.0629781 -0.92396122 -0.22452094 1.5849273e-38
1.1078553 -0.96830028 -0.21223226 1.7415151e-38
1.3792877 -0.90470123 -0.20895395 1.1981803e-39
1.4642292 -0.91653681 -0.22168453 1.3825701e-39
1.5417221 -0.95665348 -0.22134113 1.659157e-39
1.6671699 -0.92314994 -0.22728504 7.4671089e-39
1.7421441 -0.95872837 -0.21372931 7.0990453e-39
1.8030719 -0.99549603 -0.2015819 6.4536759e-39
2.2944429 -0.90101981 -0.23997156 6.3618348e-39
2.3670437 -0.90873313 -0.25441393 6.9146484e-39
2.4513516 -0.9313786 -0.28431147 9.8645442e-39
0.95516759 -0.82889301 -0.23382112 2.2673577e-38
1.0286906 -0.83969921 -0.22618143 6.4504151e-39
1.1811842 -0.8071788 -0.21187691 2.2126909e-39
1.2551081 -0.82765138 -0.21936344 1.751354e-39
1.3508743 -0.84769154 -0.2288367 2.0282983e-39
1.4477248 -0.84381413 -0.24451473 4.2402689e-39
1.5389428 -0.83872408 -0.24720725 7.9288088e-39
1.6406786 -0.87769902 -0.22537591 8.1124783e-39
1.7070897 -0.89374125 -0.20316215 6.454036e-39
2.2500093 -0.84727257 -0.21610203 7.098318e-39
2.3572049 -0.84887129 -0.24337026 9.1273337e-39
2.4292698 -0.84458154 -0.28162429 8.5748788e-39
0.87771297 -0.7153815 -0.25413418 2.2583508e-38
0.93295622 -0.76334226 -0.24749623 2.1389372e-38
1.0472394 -0.77602923 -0.25351024 1.7517114e-39
1.1456994 -0.76946926 -0.25664729 1.2907346e-39
1.2425164 -0.74380481 -0.26920238 1.1981803e-39
1.3557318 -0.74121606 -0.26911101 1.9357411e-39
1.4533848 -0.74605387 -0.24043511 2.8580589e-39
1.5124443 -0.78012466 -0.21424389 3.0428061e-39
2.195374 -0.79719174 -0.20268583 1.2998829e-38
2.2791145 -0.78827566 -0.20927948 1.3644192e-38
2.3572388 -0.74454832 -0.2364642 1.327577e-38
2.4221733 -0.77509665 -0.28275263 6.3614662e-39
0.74194914 -0.6339041 -0.26471782 1.0408698e-38
0.82137525 -0.66803747 -0.26623681 2.2761047e-38
1.2889537 -0.64513975 -0.28623724 2.9498944e-39
1.3468448 -0.6510936 -0.25761133 3.0424488e-39
1.4173717 -0.67640716 -0.21933077 3.4112355e-39
2.2861807 -0.61898768 -0.24899454 1.4382113e-38
2.3270822 -0.6673739 -0.24871844 1.3644551e-38
0.69997573 -0.55005741 -0.29537046 1.4739698e-38
0.72100753 -0.58054674 -0.29046312 8.3811171e-39
1.3108991 -0.59947354 -0.25420269 4.60905e-39
2.1891956 -0.51091963 -0.25660655 1.2077591e-38
2.2343881 -0.5596621 -0.24878529 1.1985753e-38
2.0938718 -0.40882319 -0.26023364 1.2445289e-38
2.1362009 -0.45529097 -0.24980132 1.032624e-38
1.9811723 -0.31352547 -0.25085869 5.9861887e-39
2.0367582 -0.36236811 -0.25057423 1.2441309e-38
1.8800958 -0.20636009 -0.24585456 4.3263226e-39
1.9322709 -0.25528145 -0.24960963 2.6696908e-39
1.7874823 -0.11203784 -0.24347855 7.0936181e-39
1.8302628 -0.16095777 -0.25212228 1.0133899e-38
1.6919597 -0.007080676 -0.24344192 6.0805521e-39
1.7441684 -0.051325213 -0.24769081 7.2772862e-39
1.584837 0.09186016 -0.26171097 9.9505882e-39
1.6504967 0.047819216 -0.24834813 9.2119371e-39
1.7172339 0.014304752 -0.20987219 1.5199194e-38
1.4940464 0.18954359 -0.2724179 9.8573135e-39
1.5449351 0.1452498 -0.24847022 1.2436607e-38
1.6255378 0.16703363 -0.20767416 1.0319728e-38
1.7485201 0.19430174 -0.20504579 4.6090472e-39
1.8147528 0.19778681 -0.20550987 3.5027095e-39
1.3892368 0.2861509 -0.28096926 9.3030622e-39
1.4478488 0.24642935 -0.26699087 1.2252214e-38
1.5329058 0.25337157 -0.22724739 1.898031e-38
1.6401564 0.23760383 -0.214784 8.1081301e-39
1.748577 0.25554714 -0.21030332 5.1615007e-39
1.8309975 0.24783735 -0.20610563 4.055879e-39
1.915831 0.29196215 -0.2008239 8.4747799e-39
1.283125 0.38680774 -0.28507042 1.1235907e-38
1.3576753 0.35294631 -0.27244198 1.4370903e-38
1.4534998 0.35469019 -0.24695468 2.1101896e-38
1.5410106 0.34872285 -0.22093931 2.0641288e-38
1.6270685 0.35481125 -0.20283908 1.8614791e-38
1.7486073 0.3639448 -0.20463167 8.3829205e-39
1.8463655 0.34859955 -0.20687395 9.2148434e-39
1.95591 0.35354558 -0.20975471 1.2810092e-38
2.0388753 0.35704264 -0.20523417 1.1152751e-38
2.1012895 0.39801845 -0.20006247 1.7495422e-39
1.1986341 0.48957032 -0.29844025 1.4646383e-38
1.2474533 0.45080644 -0.28284165 1.5568706e-38
1.3338299 0.43904436 -0.25347778 1.8152352e-38
1.4427639 0.44845665 -0.22428533 9.9542203e-39
1.5324328 0.40723997 -0.20698333 2.0827842e-38
1.6038971 0.40445518 -0.20129755 1.9908043e-38
1.9640831 0.40733081 -0.20335495 4.9767395e-39
2.0510685 0.40947646 -0.20297465 4.7015918e-39
2.1050422 0.40632123 -0.20193836 2.0254102e-39
1.1669955 0.56202614 -0.28830764 1.5110255e-38
1.2436656 0.56101364 -0.24969114 8.4783602e-39
1.3471178 0.54754055 -0.24184558 7.0961502e-39
1.4502614 0.52802128 -0.23233384 6.0838116e-39
1.0791743 0.67761719 -0.29162201 5.5295364e-39
1.1481239 0.64877504 -0.25323978 2.4889107e-39
1.2081331 0.60572523 -0.22613442 3.3186741e-39
0.99285239 0.79580808 -0.22080961 4.9029359e-39
1.0551618 0.75660384 -0.25064805 1.6598759e-39
1.1288884 0.72905529 -0.22887184 1.2910933e-39
0.99521625 0.80558145 -0.22336751 5.3621246e-39
1.0347881 0.82942206 -0.24845938 1.5676788e-39
1.1053935 0.80611765 -0.20108756 6.4644561e-40
1.8436012 -1.6188042 -0.12957658 4.054077e-39
1.760806 -1.5302989 -0.15087235 2.6715041e-39
1.8487345 -1.5538735 -0.12265124 3.6863734e-39
2.2938004 -1.501387 -0.10587921 1.3804037e-39
2.3371246 -1.5160331 -0.11038298 2.6711425e-39
1.7566359 -1.4428233 -0.15485521 2.8569757e-39
1.8535092 -1.4391724 -0.13886277 3.4108684e-39
1.9370437 -1.4198475 -0.1394439 3.6856504e-39
2.0561607 -1.4230902 -0.15444547 1.1697963e-38
2.1637702 -1.4443432 -0.15430973 5.0660443e-39
2.2425346 -1.4435768 -0.14768249 5.1607805e-39
2.3106666 -1.4877717 -0.11825185 7.7426182e-39
1.7602057 -1.3791938 -0.18313748 3.3179525e-39
1.8353018 -1.3827674 -0.18844379 3.4094278e-39
1.9472481 -1.3970701 -0.16295819 4.1459013e-39
2.1769879 -1.3309408 -0.14457598 9.4939667e-39
2.2160413 -1.3781375 -0.15978631 8.756403e-39
2.0892026 -1.2157686 -0.14254716 1.0509558e-38
2.1294675 -1.2637036 -0.1514971 9.9560224e-39
1.9635128 -1.1193974 -0.13179086 5.9919775e-39
2.0419359 -1.1753265 -0.15137203 9.3113761e-39
2.1675043 -1.1060233 -0.10004953 1.2812289e-38
2.2815454 -1.1044048 -0.10312051 1.2906285e-38
2.3348405 -1.1145266 -0.10469411 1.2814088e-38
2.4189262 -1.1418345 -0.1011858 1.3090314e-38
1.1485568 -1.0172527 -0.14178941 4.3328219e-39
1.8720608 -1.0266618 -0.16277263 5.8997846e-39
1.9207829 -1.0665774 -0.13117675 5.8075876e-39
2.0572381 -1.0283573 -0.11990134 1.2536422e-38
2.1412303 -1.0655754 -0.11016829 1.2629337e-38
2.2371926 -1.0836412 -0.10889775 1.2722613e-38
1.0817279 -0.93046981 -0.16396485 3.1342773e-39
1.1104721 -0.97012955 -0.16437052 8.4797965e-39
1.2850853 -0.90702003 -0.18063319 1.7499163e-39
1.331756 -0.91350114 -0.18789002 1.9346663e-39
1.7721757 -0.92692828 -0.17012802 6.0841731e-39
1.8386477 -0.96970707 -0.14516479 6.1756484e-39
1.9404106 -0.97833741 -0.12185062 1.1890333e-38
2.0015962 -0.99826348 -0.12704293 1.2627899e-38
1.0574129 -0.84361953 -0.17278884 1.9361026e-39
1.1304021 -0.81869644 -0.18029223 1.3829316e-39
1.2492392 -0.87343639 -0.19007868 9.2123463e-40
1.3166665 -0.89356822 -0.19731139 9.2123463e-40
1.5809525 -0.80748522 -0.18581122 3.7800082e-39
1.6592971 -0.84050387 -0.1607538 6.4533185e-39
1.7246689 -0.88311505 -0.15671779 6.5451512e-39
2.0958359 -0.80035371 -0.16023664 6.2681916e-39
2.1566782 -0.82069349 -0.18238708 7.3738203e-39
2.2005222 -0.84948158 -0.19531809 5.806503e-39
1.0673883 -0.79554349 -0.195271 1.8439098e-39
1.1144886 -0.7974633 -0.19621532 2.4892792e-39
1.4834901 -0.7158497 -0.15778597 3.6878196e-39
1.5282183 -0.75678658 -0.15713361 3.8722066e-39
1.6069007 -0.79832262 -0.13675383 6.5458757e-39
1.9877297 -0.73520488 -0.13324454 1.2906987e-38
2.0587552 -0.75207818 -0.14343554 1.2353456e-38
2.152694 -0.75089449 -0.14546944 1.0878325e-38
2.2459319 -0.73636812 -0.14805365 7.0986781e-39
2.3326225 -0.74808556 -0.18790951 1.1156359e-38
1.3890394 -0.61977977 -0.19427104 5.1633042e-39
1.4520422 -0.66019934 -0.15300417 4.0566007e-39
1.54221 -0.65221041 -0.11695243 4.5179348e-39
1.6414232 -0.64548218 -0.10581341 8.8511196e-39
1.7240105 -0.6629256 -0.10375659 1.0509556e-38
2.2635472 -0.65247816 -0.13220723 6.7280922e-39
2.3167195 -0.65722883 -0.17525241 7.5596521e-39
2.1814725 -0.52077442 -0.14049177 6.0798333e-39
2.2281814 -0.56554645 -0.15532672 6.0819983e-39
2.0772111 -0.42326915 -0.14073363 6.8163165e-39
2.1358728 -0.46999171 -0.15663473 6.0802004e-39
1.9748687 -0.32098091 -0.14828084 6.2631413e-39
2.0310698 -0.37090117 -0.14686112 6.539731e-39
1.8851852 -0.22449158 -0.16601755 1.114334e-38
1.9497237 -0.25797969 -0.14400524 3.5916485e-39
2.0086782 -0.20894581 -0.11105821 1.8435497e-39
1.7929318 -0.11160272 -0.19677351 1.141813e-38
1.8478653 -0.15284148 -0.17726974 1.2341873e-38
1.9660788 -0.14602214 -0.14926058 4.0537168e-39
2.0262568 -0.15036407 -0.11826351 2.9495343e-39
1.783932 -0.034299701 -0.19332832 1.6120069e-38
1.8386942 -0.052349497 -0.1775775 1.4556005e-38
1.9583013 -0.050591215 -0.14850989 4.979629e-39
2.017674 -0.052366901 -0.1162254 9.7748822e-39
1.6772078 0.077830121 -0.19202918 1.1330263e-38
1.7442148 0.043599691 -0.18216273 1.0503029e-38
1.8563806 0.048691407 -0.16316713 4.4235699e-39
1.9429908 0.051214438 -0.12793007 4.3338995e-39
2.0044475 0.013629485 -0.10556546 8.3919435e-39
1.5945817 0.13802691 -0.19620019 7.183304e-39
1.63095 0.12707852 -0.18804011 1.1796677e-38
1.7646389 0.17516953 -0.19197413 3.2264757e-39
1.8724008 0.15026046 -0.17158197 2.6729418e-39
1.9406284 0.15184766 -0.13051946 6.7302656e-39
2.0015907 0.1972138 -0.10538381 7.7454993e-39
1.7910206 0.2811133 -0.19894418 5.8950917e-39
1.8664857 0.22859053 -0.1896892 4.97422e-39
1.9623151 0.24466775 -0.16536796 5.8972581e-39
2.030447 0.26127639 -0.12820144 4.6101332e-39
1.5756615 0.39105076 -0.13858017 1.5765413e-38
1.6370417 0.38542852 -0.15745038 1.4934568e-38
1.7359295 0.39269325 -0.16542557 1.2720431e-38
1.8254182 0.39431092 -0.19807009 1.3176719e-38
1.9781653 0.3044183 -0.19295651 1.15212e-38
2.0598731 0.33409065 -0.17014305 3.6881783e-39
2.1431839 0.36409312 -0.13554715 9.4043018e-39
1.3989068 0.45578289 -0.1906147 8.2003398e-39
1.4560999 0.45363799 -0.15884948 1.3275051e-38
1.529778 0.42569092 -0.14492539 1.5764327e-38
1.6138695 0.40346271 -0.19547789 1.1335327e-38
1.7790747 0.40260947 -0.13829939 9.9570944e-39
1.848467 0.40958807 -0.14955905 1.1985402e-38
1.9533777 0.42357123 -0.15303515 1.2078314e-38
2.049175 0.4276281 -0.15751933 1.1431866e-38
2.160615 0.42218736 -0.14426112 9.6801418e-39
2.2045209 0.43077931 -0.12175696 7.3767098e-39
1.274551 0.56728375 -0.15413646 9.219535e-40
1.3355572 0.52731657 -0.14476202 2.1197694e-39
1.4470633 0.52573097 -0.15032019 1.1524061e-38
1.5181395 0.51840037 -0.11993237 1.2906629e-38
1.1789465 0.65502 -0.19214886 1.6605947e-39
1.2493753 0.64902943 -0.14757147 9.2267236e-40
1.164956 0.75983357 -0.18374847 7.3864124e-40
1.2332313 0.74574775 -0.1368764 7.3864124e-40
1.0724486 0.86728787 -0.18949613 8.3047673e-40
1.1477172 0.84427774 -0.17734082 7.3864124e-40
1.2362083 0.84774518 -0.1301336 7.3864124e-40
1.0878012 0.91036862 -0.17453665 7.3864124e-40
1.1525774 0.93590367 -0.16982992 7.3864124e-40
1.2582873 0.94473851 -0.14462361 7.3864124e-40
1.3142389 0.97972447 -0.11871691 8.3083687e-40
1.1885904 1.008423 -0.16757101 6.4644561e-40
1.2644595 1.0416547 -0.16011849 7.3864124e-40
1.3415908 1.0557026 -0.13059759 9.230325e-40
1.2922516 1.1077098 -0.153128 4.6205435e-40
1.3624462 1.1387688 -0.12402289 8.3083687e-40
1.4036452 1.1393479 -0.10643291 1.0148694e-39
1.7674897 -1.533078 -0.044157583 3.2243163e-39
1.8355942 -1.520949 -0.058377262 3.7774901e-39
2.2839961 -1.5078239 -0.065088883 7.1876312e-39
2.341737 -1.5221686 -0.063498236 4.05407e-39
1.8796923 -1.4843837 -0.047215842 2.9470091e-39
1.9467266 -1.4410917 -0.051519837 3.2232317e-39
2.044878 -1.4312875 -0.045131426 5.3408291e-39
2.1495483 -1.4630896 -0.051692169 6.353895e-39
2.2411106 -1.4591879 -0.044029053 7.5535186e-39
2.3208613 -1.4851762 -0.055512596 4.4217707e-39
2.1589553 -1.3390877 -0.050480071 1.0414111e-38
2.2088768 -1.3914447 -0.062826939 9.9538574e-39
2.0794797 -1.2365106 -0.049924802 1.1247483e-38
2.1142461 -1.280356 -0.056772321 1.0969454e-38
2.2682095 -1.2201487 -0.00632599 1.3182512e-38
2.332298 -1.2158048 -0.015193773 1.3182512e-38
2.4421985 -1.2003903 -0.0035077848 1.3735686e-38
2.7659414 -1.2095404 -0.023930294 1.2168e-38
2.8316863 -1.2173051 -0.014137803 6.5426289e-39
1.9582797 -1.1278472 -0.043888602 5.1622182e-39
2.0216269 -1.1829538 -0.056725349 8.850042e-39
2.1832592 -1.1161801 -0.086099848 1.2720815e-38
2.2548103 -1.1351103 -0.067581065 1.2997762e-38
2.3468864 -1.1611429 -0.046173319 1.3274708e-38
2.4467621 -1.1707315 -0.042452436 1.3367264e-38
2.5588038 -1.1710037 -0.049572695 1.3551653e-38
2.6480927 -1.1753753 -0.033904422 1.2721893e-38
2.7596779 -1.1493822 -0.035165928 7.5560522e-39
2.8179939 -1.1694862 -0.019390713 5.3411962e-39
1.8964576 -1.0069319 -0.094102241 5.8987014e-39
1.9317514 -1.0578181 -0.056721926 5.6228334e-39
2.026896 -1.0587122 -0.075592332 9.3088537e-39
2.1730583 -1.0922867 -0.096244149 1.2629338e-38
2.2176106 -1.0936387 -0.095046379 1.2905927e-38
2.4806345 -1.0699925 -0.071037285 1.5028214e-38
2.5335624 -1.0847528 -0.0638991 1.5027857e-38
2.6842582 -1.0132278 -0.028130053 9.2108693e-39
2.7317581 -1.060515 -0.026246721 8.1970831e-39
1.8905678 -0.9914344 -0.095442973 6.4511535e-39
1.9138442 -0.99539572 -0.094121106 7.373107e-39
2.5874941 -0.9078542 -0.026902918 5.987639e-39
2.6322403 -0.95575976 -0.029063921 8.1977978e-39
2.3882024 -0.80790758 -0.068394706 6.2631413e-39
2.4684331 -0.82439685 -0.036366951 5.0667701e-39
2.5383005 -0.86946052 -0.023051012 3.8696717e-39
1.5211213 -0.71202564 -0.086748056 4.4257378e-39
2.1703727 -0.74322194 -0.098082162 1.1430052e-38
2.2825027 -0.72884786 -0.085130379 6.9092352e-39
2.3488221 -0.74426681 -0.055451505 5.7117752e-39
2.4278145 -0.75740528 -0.02043039 5.9894495e-39
1.4962838 -0.67213315 -0.096646495 4.056958e-39
1.5277653 -0.65811032 -0.082992412 4.7019645e-39
1.6688418 -0.63303697 -0.07025855 1.4381403e-38
1.7141527 -0.64512432 -0.095476598 1.2630052e-38
2.2529998 -0.64522171 -0.073317103 5.0656869e-39
2.3394899 -0.64696783 -0.032137886 5.3444402e-39
2.4326313 -0.66445112 -0.012176322 7.8344327e-39
2.5244009 -0.62734354 -0.0053664572 1.3922209e-38
1.6353461 -0.59728229 -0.068951808 1.43814e-38
2.1698503 -0.52834088 -0.077143826 3.039918e-39
2.2385266 -0.55886275 -0.053355809 5.6206656e-39
2.3438072 -0.56019998 -0.018293874 8.4823273e-39
2.4346695 -0.57492363 -0.0084353676 1.0788652e-38
2.502713 -0.59467417 -0.0035947033 1.6136343e-38
2.0804937 -0.43430036 -0.071097791 5.5316958e-40
2.1301413 -0.45017838 -0.03867536 1.6595129e-39
2.2181568 -0.48417321 -0.013154255 5.5331657e-39
1.9953886 -0.30638099 -0.089567713 1.2910947e-39
2.0558949 -0.34852931 -0.05104088 5.5317098e-40
2.1040175 -0.39488286 -0.02383573 4.6097535e-40
1.9875103 -0.25418118 -0.066791959 1.1985404e-39
2.0241859 -0.24141805 -0.03927296 1.1063448e-39
2.0643196 -0.15260212 -0.057340991 1.4751259e-39
2.1210485 -0.13911216 -0.010504088 3.4119474e-39
2.0648699 -0.046876416 -0.058378153 3.7807313e-39
2.107306 -0.071450606 -0.012801432 2.0272179e-39
1.9897301 0.073453911 -0.086908944 1.1802462e-38
2.0303106 0.04620472 -0.044921972 4.0580356e-39
1.9866246 0.13869894 -0.075939015 7.9295304e-39
2.019449 0.15558833 -0.034811284 3.3190315e-39
2.0611739 0.23649429 -0.062762588 5.1629497e-39
2.1308503 0.27167478 -0.030454589 3.7789306e-39
2.2016878 0.29951268 -0.0031623337 1.0781384e-38
1.3955854 0.36819518 -0.02382341 4.7941671e-39
1.4126244 0.38561869 -0.041237641 2.397078e-39
1.5646247 0.39295408 -0.09199091 1.5857246e-38
1.6287999 0.38430083 -0.096480027 1.6318946e-38
1.7056574 0.39443922 -0.098416694 1.6042358e-38
2.0974815 0.30046651 -0.096816517 7.9298976e-39
2.1650627 0.34692609 -0.057049733 5.07111e-39
2.2185757 0.3659471 -0.010890229 1.0231832e-38
1.4550331 0.44677487 -0.04787825 3.8722052e-39
1.518706 0.43909305 -0.091306202 1.4012975e-38
1.7668384 0.43297252 -0.068181545 9.4961289e-39
1.835886 0.43580881 -0.063599952 9.3121019e-39
1.9585379 0.45150122 -0.074082591 1.0325891e-38
2.0641592 0.45987019 -0.077866405 1.0140779e-38
2.1693442 0.4343774 -0.071409568 7.4681907e-39
2.2433224 0.44156522 -0.036735684 1.5030048e-38
2.3416331 0.46647888 -0.026745206 2.093166e-38
2.4484549 0.47980186 -0.016426299 2.1116406e-38
2.5215025 0.49150315 -0.0079062972 2.1761048e-38
1.2930995 0.58233094 -0.076497711 8.30118e-40
1.315634 0.56121039 -0.046145193 8.301152e-40
1.470526 0.5634203 -0.052756205 5.6242781e-39
1.5158583 0.54798269 -0.048602618 2.4896337e-39
2.2703378 0.51040393 -0.044519298 2.037885e-38
2.3528697 0.52260846 -0.036427308 2.0839828e-38
2.4608619 0.56254601 -0.023088034 2.1577026e-38
2.5289474 0.54200232 -0.0083339103 2.2129834e-38
1.2901343 0.64810926 -0.07525444 8.3047673e-40
1.3072678 0.65362644 -0.025937643 9.2267376e-40
2.4616694 0.60649765 -0.014273824 2.2037638e-38
1.2848483 0.75217414 -0.07014931 8.3083687e-40
1.3088444 0.7445147 -0.021713845 1.0152281e-39
1.2828301 0.84664148 -0.060893327 9.2303109e-40
1.3070825 0.83931005 -0.015009764 1.1074238e-39
1.2957985 0.91302544 -0.081150748 9.2303109e-40
1.3232088 0.95014858 -0.045705933 1.0152267e-39
1.3775793 1.042178 -0.058494952 1.1070636e-39
1.4089482 1.084 -0.033107422 1.1992607e-39
1.3840803 1.1782782 -0.062338427 1.0152281e-39
1.4180036 1.1505594 -0.043741941 1.1074238e-39
1.3866577 1.2017366 -0.0069881347 1.1074238e-39
1.7995991 -1.6010947 0.050637841 1.8340021e-38
1.836815 -1.6194909 0.082638964 1.3456927e-38
1.7775307 -1.5524279 0.019775186 1.2802509e-38
1.8352811 -1.5394691 0.05568745 1.3639864e-38
1.8727307 -1.4802859 0.041528877 1.1888145e-38
1.9473251 -1.4375875 0.051592372 6.6315763e-39
2.0430739 -1.4144162 0.0084265936 1.4738602e-38
2.1475282 -1.419315 0.0059521813 1.3640916e-38
2.2032917 -1.4214854 1.3968481e-05 1.1421367e-38
1.996101 -1.3952873 0.066197954 3.2221611e-39
2.0579212 -1.3612154 0.060235497 3.8762116e-39
2.1336277 -1.3278317 0.043434121 8.0213715e-39
2.2124319 -1.3040299 0.08487615 1.2722614e-38
2.0776708 -1.2492212 0.020306049 1.0786869e-38
2.1232548 -1.28588 0.049401861 1.0419175e-38
2.262923 -1.2731234 0.057230163 1.3275787e-38
2.3489358 -1.2389404 0.049963433 1.3736765e-38
2.4450729 -1.2228273 0.050787885 1.3828599e-38
2.5506487 -1.2261209 0.053617179 1.3828239e-38
2.645119 -1.2214781 0.054515027 1.3736402e-38
2.7443712 -1.2231208 0.058860436 1.3552728e-38
2.8677337 -1.2290055 0.04914334 1.0508469e-38
2.9031062 -1.2348418 0.053420804 1.0324439e-38
1.9658113 -1.1426151 0.010963337 4.1484236e-39
2.0110719 -1.18954 0.019981459 5.716108e-39
2.1770649 -1.1878426 1.3802211e-05 1.3182152e-38
2.3997412 -1.1968318 1.521394e-05 1.364349e-38
2.462501 -1.1946046 0.0025616668 1.3551295e-38
2.5519683 -1.1953863 0.0050717383 1.3551295e-38
2.6572468 -1.1976712 0.0045782416 1.3367261e-38
2.794044 -1.1058649 0.0401414 9.3977857e-39
2.8424506 -1.1533264 0.049785431 7.9255493e-39
1.943872 -1.0932828 0.0036760101 3.9629519e-39
2.6876917 -1.0088735 0.04272541 5.6203041e-39
2.7479591 -1.0572326 0.051071163 8.5709159e-39
2.8016293 -1.0981734 0.038412478 1.1522247e-38
2.5864038 -0.91017699 0.03399387 3.5927303e-39
2.6425316 -0.9576304 0.053320363 5.5277525e-39
2.4818678 -0.81918311 0.01535642 3.2253897e-39
2.5443368 -0.84662771 0.056778431 6.7288194e-39
2.6057363 -0.89518607 0.092926018 2.3034292e-39
2.4630039 -0.752891 0.011707352 4.6090388e-39
2.5599697 -0.76146364 0.05344997 8.2050257e-39
2.641151 -0.72883606 0.065646693 7.6518519e-39
2.7236166 -0.71513313 0.085184768 7.467818e-39
2.4836333 -0.67722279 0.0031248839 1.1524053e-38
2.5495968 -0.64966875 0.012148544 1.3829664e-38
2.6696837 -0.64394546 0.041755177 6.7302614e-39
2.725832 -0.6632939 0.075531617 7.4674635e-39
2.2903605 -0.50456607 0.0049771615 1.1251454e-38
2.3659813 -0.51549977 0.027292352 5.9015923e-39
2.45186 -0.5421977 0.031311303 6.6398706e-39
2.5557332 -0.54908228 0.064510241 6.2667707e-39
2.6231463 -0.57607085 0.075935006 3.5963526e-39
2.1601105 -0.42325005 0.01835566 5.5317098e-40
2.2416992 -0.46961707 0.022064902 1.1988991e-39
2.3415256 -0.48297685 0.050217453 1.6587955e-39
2.4798093 -0.44306925 0.082066007 1.0971245e-38
2.5108974 -0.48050973 0.08771845 1.659265e-38
2.0874398 -0.33737016 0.0084878122 6.4536521e-40
2.1255958 -0.35712945 0.027006634 6.4536521e-40
2.25212 -0.34665069 0.049037103 2.8591295e-39
2.362227 -0.33013907 0.06961786 5.532437e-39
2.4463372 -0.36973351 0.08142218 4.2416996e-39
2.5014086 -0.38866901 0.09564662 2.674018e-39
2.0591626 -0.25090268 0.011700119 1.7517128e-39
2.1479349 -0.24590376 0.03024555 2.3045236e-39
2.2631028 -0.23183101 0.060542211 5.5320825e-39
2.3288877 -0.26938349 0.077179983 5.3480458e-39
2.090014 -0.19629017 0.0046442593 3.6878196e-39
2.1633592 -0.15218088 0.010245468 2.212328e-39
2.2594602 -0.16052744 0.05101363 1.5673201e-39
2.3243856 -0.12792403 0.079908162 1.1067035e-39
2.0855939 -0.010107374 0.0082116928 1.1059804e-39
2.1317053 -0.053109687 0.018474583 1.6584325e-39
2.2558255 -0.067996934 0.047523007 8.7541792e-39
2.3648412 -0.062731199 0.071352914 9.2176712e-39
2.4457436 -0.031113625 0.082421973 1.2077943e-38
2.058054 0.050098352 0.011339107 1.6584311e-39
2.1437361 0.040324043 0.029284647 2.9469895e-39
2.2502294 0.059203189 0.03975435 1.750797e-38
2.3521466 0.040816333 0.051923718 1.879908e-38
2.4570236 0.051981434 0.079614103 7.8366033e-39
2.0598767 0.13746966 0.0067359703 6.9099246e-39
2.150322 0.15093097 0.021895565 1.7140276e-38
2.2483609 0.14749207 0.040718868 2.0000136e-38
2.3462236 0.15104127 0.064592972 1.5208606e-38
2.44102 0.14452237 0.085721225 1.4012993e-38
2.5123553 0.19272485 0.095612653 9.6794621e-39
2.0943594 0.2063573 1.3277873e-05 4.1433593e-39
2.1591675 0.23119418 0.0070347739 1.2621307e-38
2.2478342 0.26086137 0.018682756 1.8708699e-38
2.3483243 0.25186622 0.038228821 2.0737361e-38
2.4465265 0.23425466 0.05908462 2.2215809e-38
2.527401 0.24643178 0.069949545 2.0467021e-38
1.422673 0.39023483 0.043047506 3.5041472e-39
2.2553847 0.32538423 0.013713414 1.6589694e-38
2.3330321 0.3173261 0.039102256 1.7885543e-38
2.4331472 0.30115932 0.049158365 2.0924362e-38
1.4478167 0.44860485 0.05027546 5.5425138e-40
2.5572858 0.4872812 0.0016677278 2.2222378e-38
2.6097047 0.49432731 0.0075463913 2.2406768e-38
2.9810526 0.48365831 0.038551595 2.1577746e-38
3.047543 0.48447481 0.053102843 2.1024932e-38
3.1449051 0.48507148 0.070832804 2.1209321e-38
3.2420793 0.48839951 0.087480061 2.139335e-38
3.3223071 0.48497036 0.090570778 2.1669217e-38
1.3232303 0.5741955 0.046489742 1.5684019e-39
1.4794159 0.55589163 0.059291832 1.4758489e-39
1.5064716 0.55543745 0.023869375 6.4608968e-40
2.4868236 0.59525913 0.0056262608 2.2314225e-38
2.5604098 0.57055372 0.010326224 2.2590809e-38
2.6482117 0.5594098 0.025315059 2.2590809e-38
2.7485616 0.55754817 0.040529579 2.2406419e-38
2.844666 0.55842203 0.054153401 2.222275e-38
2.9600563 0.54639119 0.054153439 2.1946523e-38
3.0542619 0.547032 0.070321687 2.1762492e-38
3.140789 0.54074901 0.087213643 2.15781e-38
3.2076304 0.50461042 0.09604302 2.1394071e-38
1.327227 0.64955938 0.047786038 1.107065e-39
1.4642521 0.60055369 0.099293098 1.7535232e-39
2.4759183 0.61193949 0.0079342276 2.1853248e-38
2.5623612 0.62496537 0.034723606 2.1945804e-38
2.6501205 0.63365662 0.06268318 2.1670297e-38
2.7433 0.63842624 0.083040223 2.1578102e-38
2.8415461 0.61714834 0.088075973 2.1578461e-38
2.9541323 0.6111477 0.091569945 2.1578821e-38
3.0301569 0.60671967 0.095646389 2.1578461e-38
1.3489919 0.75004894 0.046383038 1.1992607e-39
1.344015 0.84804648 0.039437909 1.2918136e-39
1.4132532 0.86264139 0.089621164 1.291815e-39
1.3560793 0.94506979 0.038612299 1.3840106e-39
1.4208018 0.94773537 0.086224966 1.3840106e-39
1.3879313 1.0187507 0.028826207 1.291815e-39
1.4310712 1.0615947 0.051836796 1.4762063e-39
1.5141727 1.0721364 0.096749984 1.4762063e-39
1.3961165 1.198796 0.0014197798 1.1074238e-39
1.4543947 1.1593163 0.041315936 1.4762063e-39
1.5158983 1.1514299 0.095314905 1.4758461e-39
1.3952379 1.2081603 0.0095713763 1.1996194e-39
1.4470341 1.2246418 0.06053441 1.4762063e-39
1.5024056 1.2079105 0.099171475 9.230325e-40
1.49097 1.304123 0.09895391 1.8449888e-39
1.9671046 -1.7258642 0.18305382 4.5168558e-39
1.8769863 -1.6373373 0.1273648 1.2076162e-38
1.942575 -1.6538126 0.17526728 6.4536843e-39
1.8724985 -1.5438792 0.13248682 1.2722256e-38
1.9137796 -1.5455253 0.18487483 3.6903671e-39
1.8903247 -1.4851497 0.13690095 1.2539315e-38
1.9369748 -1.4396805 0.14870623 3.6914518e-39
1.9855828 -1.3924121 0.16574204 3.3219434e-39
2.0507247 -1.3546698 0.14747502 4.0606028e-39
2.1438742 -1.3225516 0.14673755 5.9034168e-39
2.2422395 -1.3289967 0.14479974 9.1266317e-39
2.3499215 -1.3666955 0.17617427 6.0827326e-39
2.4509885 -1.3609507 0.1829471 5.989095e-39
2.5476191 -1.3284407 0.18715909 5.9883705e-39
2.6191578 -1.3045151 0.18975295 6.172396e-39
2.120544 -1.2992629 0.10280401 8.0228359e-39
2.2781484 -1.2916868 0.12052652 1.216836e-38
2.3501115 -1.2731497 0.12587343 1.1891413e-38
2.4449208 -1.2545958 0.13168558 1.1521909e-38
2.5484161 -1.2543398 0.13636985 1.1061288e-38
2.6534972 -1.2678627 0.15080461 9.7698263e-39
2.7517729 -1.264376 0.15467121 9.0322612e-39
2.8451803 -1.2380372 0.15345833 7.9266353e-39
2.901607 -1.2325953 0.10362232 1.106273e-38
2.7905331 -1.1125337 0.15811861 6.8177682e-39
2.8266964 -1.1614819 0.1495239 7.7418839e-39
2.6918099 -1.005476 0.11375193 8.6623941e-39
2.7550788 -1.0528136 0.15450633 8.2907305e-39
2.66799 -0.94699383 0.13191427 5.9854894e-39
2.7405572 -0.95015955 0.18109177 8.100933e-39
2.5749178 -0.84012258 0.10802419 8.7571233e-39
2.6577072 -0.8698017 0.12814042 4.4210504e-39
2.7471981 -0.85556847 0.15411888 5.6149021e-39
2.8497384 -0.84071988 0.17151988 7.1847361e-39
2.9204936 -0.81303775 0.17723225 7.6467876e-39
2.5798471 -0.78790677 0.10405253 1.0049297e-38
2.6501796 -0.77551448 0.107481 8.2057446e-39
2.7550015 -0.75281453 0.11065526 8.019554e-39
2.8506148 -0.75038236 0.12710238 6.5422548e-39
2.9554586 -0.75573295 0.16734999 7.3705623e-39
3.0074992 -0.72050554 0.18683784 7.5556752e-39
2.6896131 -0.60286742 0.10737284 3.5041598e-39
2.7622476 -0.6281625 0.13437998 3.5027151e-39
2.8466148 -0.65869337 0.14248729 4.6998079e-39
2.9442422 -0.68352181 0.16422698 6.819929e-39
3.0076272 -0.69729179 0.19527805 7.8333509e-39
2.5678427 -0.51793611 0.14974356 9.0340731e-39
2.6478631 -0.56266952 0.1415296 3.78219e-39
2.7233341 -0.58906406 0.16151507 1.291106e-39
2.494787 -0.42574164 0.10647775 5.4402344e-39
2.5182095 -0.44862297 0.15224648 9.9570916e-39
2.3829241 -0.30886883 0.14190163 6.5462274e-39
2.4478233 -0.3446604 0.14511731 4.8867117e-39
2.5157518 -0.38606992 0.16469656 1.2907304e-39
2.1950784 -0.22706813 0.19951962 5.3476856e-39
2.2773793 -0.23624699 0.16056906 2.4896337e-39
2.3425779 -0.25720069 0.14058815 6.2696461e-39
2.4243691 -0.23344363 0.18382536 1.355381e-38
2.2974954 -0.1788656 0.1053594 1.2907346e-39
2.3420756 -0.15072219 0.13931708 1.5673243e-39
2.4419796 -0.14495333 0.18653196 8.6667395e-39
2.5089986 -0.12648326 0.19808529 1.6042733e-38
2.3934302 -0.090684153 0.12939072 1.8439098e-39
2.4526646 -0.043195199 0.15061168 9.4053752e-39
2.5061028 -0.082845695 0.19715647 1.5950895e-38
2.4697726 0.046561204 0.14867426 7.8380467e-39
2.5032392 0.089592986 0.1892193 1.6596257e-38
2.4804909 0.1218826 0.12512854 1.0603192e-38
2.534945 0.15227939 0.15889232 8.5752572e-39
2.6235454 0.19376811 0.1607691 2.8595009e-39
2.5775809 0.20190519 0.11716238 1.5694893e-39
2.6687818 0.20685533 0.1574087 2.8598638e-39
2.7075748 0.21834123 0.16095003 2.0304647e-39
1.4251705 0.39522713 0.13268362 1.0143313e-38
1.4445412 0.44758707 0.15026431 1.2914563e-39
3.2793636 0.49815845 0.10410311 2.1301875e-38
3.3490825 0.49470478 0.10535691 2.130116e-38
3.4186852 0.49630055 0.11181904 2.1208965e-38
4.1870527 0.44965863 0.18511987 1.2908125e-38
4.259109 0.48113087 0.18128844 1.300104e-38
1.3383435 0.58612305 0.11065486 8.3084247e-40
1.4912658 0.52962917 0.13644168 1.5684061e-39
1.5107133 0.56431997 0.15394922 2.1219414e-39
3.0842695 0.59754676 0.10235944 2.1670295e-38
3.1770821 0.56681257 0.10594584 2.1578818e-38
3.2404442 0.55206352 0.1206176 2.1670655e-38
3.3537242 0.54965734 0.13762535 2.176249e-38
3.4482353 0.54587728 0.15410201 2.1854686e-38
3.55092 0.54590529 0.17122138 2.176213e-38
3.6424456 0.53093195 0.17643794 2.1669939e-38
3.7456222 0.52844459 0.19183753 2.1577383e-38
3.829895 0.53758609 0.19893312 2.1576663e-38
4.2847824 0.50794983 0.18083172 1.3092877e-38
4.3500357 0.53502303 0.18419939 1.3001043e-38
4.4471064 0.5693723 0.19179846 1.3001401e-38
1.3532985 0.64892411 0.11521341 1.107072e-39
1.4689463 0.62711579 0.11795867 2.5832839e-39
1.5549742 0.63459736 0.16125394 2.8602337e-39
1.6063604 0.6810202 0.1878978 2.9538755e-39
2.6898112 0.69963801 0.14359517 2.1669577e-38
2.7597842 0.68163216 0.10985135 2.1669937e-38
2.8462296 0.6656211 0.11576478 2.1485906e-38
2.9519198 0.65653348 0.12080142 2.176285e-38
3.0521836 0.64718682 0.12610221 2.1762849e-38
3.1528409 0.64722723 0.1388198 2.1854684e-38
3.2507873 0.65375578 0.15742421 2.2039074e-38
3.3495698 0.65441769 0.17220253 2.213091e-38
3.4424503 0.64747101 0.18418173 2.2407135e-38
3.5360284 0.62804675 0.19107148 2.2591166e-38
1.3863795 0.74298418 0.11623403 1.475856e-39
1.4277657 0.76070446 0.13957 4.8921571e-39
1.5608627 0.7684285 0.17265485 8.6826625e-39
1.6280823 0.7470147 0.18781433 8.0318687e-39
2.762419 0.70990014 0.14402482 2.1485906e-38
2.853523 0.7214765 0.15741558 2.1485547e-38
2.9468906 0.72783816 0.16667445 2.1485906e-38
3.0500507 0.72820753 0.1741661 2.1578461e-38
3.1436522 0.72034729 0.18202105 2.1763209e-38
3.2416775 0.71065378 0.1888998 2.1947598e-38
1.4540474 0.84087831 0.13476002 1.199625e-39
1.5406156 0.85886919 0.17047594 3.9698323e-39
1.617488 0.82249218 0.19414204 9.3280375e-39
1.4792776 0.93109041 0.10945646 1.0152281e-39
1.5531609 0.93157244 0.15074553 1.4758489e-39
1.629586 0.96530747 0.17641696 1.8446329e-39
1.4889206 1.0093322 0.10139869 1.1996194e-39
1.5598863 1.063467 0.11333676 1.1074238e-39
1.6725975 1.0220754 0.17927057 1.1992635e-39
1.7298825 1.0622064 0.1888741 1.1070664e-39
1.5613364 1.1585282 0.10965575 1.0152281e-39
1.6192509 1.1660581 0.12447275 1.5684019e-39
1.7834387 1.1095562 0.192165 1.1070664e-39
1.8124505 1.1358086 0.19524987 1.1074252e-39
1.4914215 1.262274 0.10313064 1.5684019e-39
1.5456635 1.2486676 0.11647175 1.8449888e-39
1.6464658 1.26057 0.14070345 1.8446301e-39
1.7278547 1.2783707 0.15232746 1.9371858e-39
1.4944305 1.3054725 0.10325839 2.0293801e-39
1.5601416 1.3346603 0.12604165 2.0293801e-39
1.6535692 1.3538308 0.16112776 1.4762077e-39
1.7381917 1.3418392 0.18130609 1.3836533e-39
1.8211744 1.3569551 0.18056916 1.5684047e-39
1.5930498 1.4037523 0.13790408 2.1219358e-39
1.6624931 1.4345902 0.17277221 1.2918178e-39
1.7085319 1.4474176 0.19552349 1.2914591e-39
1.8786876 1.4106634 0.19350342 1.1992635e-39
1.9229419 1.4350493 0.19663647 1.1992635e-39
2.1600101 1.4624072 0.19944827 4.3342708e-39
1.7105769 1.5132813 0.194355 1.3840106e-39
1.9667026 -1.7256033 0.22563316 2.3023586e-39
1.8915327 -1.6770333 0.28745499 5.1582441e-39
1.9458047 -1.6535499 0.25567815 3.7774803e-39
1.896541 -1.5128284 0.27498433 3.9691204e-39
1.9175333 -1.5493129 0.24259557 2.4918156e-39
1.8965794 -1.4676294 0.25711703 4.4304615e-39
1.9294543 -1.4322335 0.24910556 3.9709421e-39
1.9822762 -1.3858178 0.2431726 4.8903509e-39
2.0414958 -1.3400974 0.25251791 4.3371827e-39
2.1409481 -1.3292123 0.24771395 4.0602357e-39
2.2532988 -1.3656152 0.25018868 5.1625909e-39
2.3507493 -1.3877988 0.2486828 5.9890908e-39
2.4543135 -1.3918458 0.25061122 6.4489801e-39
2.5488362 -1.3459826 0.25106877 7.1858151e-39
2.6120136 -1.30533 0.23777917 7.6464303e-39
2.6556253 -1.2838349 0.25475377 7.7382644e-39
2.7568645 -1.2506713 0.25275359 7.553513e-39
2.8128798 -1.2188638 0.23106402 7.7371868e-39
2.7950227 -1.1175351 0.23356119 8.7488164e-39
2.8058479 -1.1597309 0.25803483 8.2889186e-39
2.7803845 -1.0489587 0.25077772 8.9332062e-39
2.7805591 -0.96220982 0.242331 9.0261207e-39
2.813282 -0.92078632 0.26446065 9.0271983e-39
2.8544357 -0.86986643 0.24745727 8.567302e-39
2.9434769 -0.82318646 0.25392005 8.1074042e-39
2.9841702 -0.78307265 0.22467139 7.6467876e-39
3.0316763 -0.7463727 0.25618798 7.6471506e-39
2.7935402 -0.60332614 0.27204886 7.4656516e-39
2.8501146 -0.62329835 0.24343298 6.5426135e-39
2.9518774 -0.66280478 0.24676803 5.435903e-39
3.0228755 -0.69133449 0.25776619 6.1731051e-39
2.574403 -0.51411736 0.22672467 1.2075051e-38
2.6456335 -0.53685874 0.26410079 8.4797979e-39
2.7430906 -0.58382624 0.2558175 7.6496785e-39
2.5506783 -0.44590148 0.2473114 1.0140397e-38
2.6068447 -0.49441773 0.28154197 9.5868685e-39
2.3636839 -0.31198001 0.25040951 1.3182142e-38
2.4611766 -0.34467214 0.25524685 6.2663965e-39
2.5228274 -0.37970409 0.24627486 2.1201281e-39
2.1937623 -0.22968771 0.25729701 2.7658577e-39
2.237632 -0.24999119 0.24666452 3.6878112e-39
2.3323398 -0.27067095 0.24171051 1.3829318e-38
2.4507456 -0.23139413 0.23552997 1.4751993e-38
2.5468638 -0.21885858 0.25531864 1.5120773e-38
2.2382891 -0.19505346 0.29272789 2.1208498e-39
2.4888942 -0.18563053 0.2010913 1.6043808e-38
2.5508344 -0.14955701 0.25245109 1.576686e-38
2.3956754 -0.060698353 0.28937179 1.7520687e-39
2.4419901 -0.033722837 0.25092626 8.5748956e-39
2.5225947 -0.081021458 0.24523219 1.6043088e-38
2.4519768 0.023743669 0.23045985 5.5324398e-39
2.5385692 0.06591095 0.25987267 1.6688452e-38
2.5626554 0.14272824 0.25054634 1.1986124e-38
2.6304898 0.19247596 0.25596327 7.3763608e-39
2.6824882 0.21761884 0.29033029 3.8732941e-39
2.7199051 0.21466599 0.26612023 3.4126746e-39
1.402169 0.39910218 0.20734623 1.2632598e-38
1.3978069 0.40995994 0.22262989 3.6885455e-39
1.424749 0.45032227 0.21774308 2.2134196e-39
4.1928406 0.44638312 0.2056876 1.2724093e-38
4.2573314 0.47074825 0.22657943 1.3000319e-38
4.3307781 0.48568159 0.25345272 1.3092152e-38
4.4628806 0.49766698 0.2768808 1.0234807e-38
1.4862915 0.51665998 0.21615505 3.0435418e-39
1.5214871 0.56201476 0.21309173 3.2286561e-39
3.668714 0.56926054 0.20772275 2.2314942e-38
3.7427025 0.55990887 0.22378819 2.2314942e-38
3.8509202 0.57281911 0.241871 2.2130194e-38
3.9502394 0.58558619 0.26658085 2.222275e-38
4.0574708 0.59409463 0.28334647 2.1947599e-38
4.2904429 0.50525969 0.20635265 1.3276906e-38
4.3537717 0.51845831 0.23034348 1.3276906e-38
4.456018 0.55045575 0.23884924 1.3092877e-38
4.5172591 0.5828566 0.2428133 1.30014e-38
4.6384611 0.57081944 0.28219745 1.2999958e-38
4.7599592 0.55826306 0.29531178 8.2990584e-39
1.5768262 0.61698335 0.21136913 3.78219e-39
1.6060739 0.65859389 0.20746352 3.2290177e-39
3.3801103 0.69752872 0.20360693 2.1947598e-38
3.460856 0.6842913 0.21246105 2.2131269e-38
3.555392 0.6663717 0.22209388 2.2407135e-38
3.6477973 0.64981675 0.22984393 2.2499331e-38
3.7493484 0.6515379 0.24967554 2.2498972e-38
3.8508806 0.65466613 0.27242312 2.2498972e-38
3.9392574 0.63457233 0.28659606 2.2498973e-38
4.0368118 0.60910523 0.29238087 2.2039436e-38
4.158947 0.60475737 0.29700798 2.1947599e-38
4.4634371 0.6034168 0.24360693 1.4108464e-38
4.5163841 0.60267192 0.2489595 1.3093954e-38
4.6617951 0.61396337 0.28249621 1.3646049e-38
4.7967768 0.611022 0.29759601 1.4566563e-38
4.8149881 0.63765812 0.29872584 1.3370178e-38
1.6496028 0.76906139 0.20741324 7.4797809e-39
1.705892 0.75871986 0.20920205 6.4602101e-39
2.9683659 0.7631492 0.20700927 2.1577742e-38
3.0548654 0.77251929 0.21624613 2.1578458e-38
3.155282 0.76616424 0.21766008 2.1671013e-38
3.2518935 0.75738919 0.2244536 2.1855045e-38
3.3481367 0.74655592 0.2325291 2.1855402e-38
3.450654 0.74785113 0.25097647 2.1946879e-38
3.5481136 0.74747038 0.27168795 2.2039074e-38
3.6403646 0.72844476 0.28303203 2.2314941e-38
3.7375231 0.71128404 0.29061779 2.231494e-38
3.8457513 0.70400697 0.29628634 2.2406776e-38
1.4865674 0.83859396 0.20236452 1.292908e-39
1.5311037 0.87941164 0.20560062 1.1077895e-39
1.6537653 0.81894094 0.21170171 9.4195073e-39
3.0907636 0.80169439 0.23634282 2.1670653e-38
3.1556926 0.81066364 0.24815482 2.1670653e-38
3.2565773 0.82636249 0.26493359 2.194688e-38
3.3470199 0.83348966 0.27816415 2.176249e-38
3.4461803 0.82607734 0.28875601 2.1486622e-38
3.5114956 0.80900401 0.29688701 2.1762849e-38
1.5777593 0.92311674 0.20893103 1.1077895e-39
1.6303953 0.97223175 0.21162967 1.199625e-39
1.6812768 1.0200098 0.21639311 1.199625e-39
1.7371751 1.0699104 0.21900998 1.1996236e-39
1.7875149 1.1133107 0.22577612 1.2914619e-39
1.8413023 1.1573449 0.22615784 1.1992649e-39
1.8964969 1.2017341 0.23748951 1.1992663e-39
1.9564914 1.2476153 0.24336316 1.1992663e-39
2.0135927 1.2887728 0.23808494 1.1992649e-39
1.7641101 1.384637 0.20487073 1.3832946e-39
1.8154261 1.3889414 0.20751241 1.3832946e-39
2.0592318 1.328877 0.25555515 1.1992663e-39
2.1288803 1.3818814 0.25357097 1.1992663e-39
1.7521194 1.4541675 0.21395999 1.2914591e-39
1.8386173 1.4531059 0.23117916 1.2914605e-39
1.931998 1.4809746 0.2334335 1.2914605e-39
2.0129325 1.4956722 0.21199837 1.1992635e-39
2.1676478 1.443024 0.26916373 1.1996264e-39
2.2309833 1.4760219 0.25299314 1.1992635e-39
1.7615155 1.5331782 0.22529587 1.1992635e-39
1.8101895 1.5387198 0.23888509 1.2918206e-39
1.97258 1.5144889 0.25289133 1.2911004e-39
2.0600607 1.5505552 0.25567999 1.3836575e-39
2.1522443 1.5701416 0.2701655 1.3840177e-39
2.2561805 1.5467744 0.2586183 1.1074266e-39
2.3060286 1.5864347 0.26190057 1.1996208e-39
1.8325902 1.6103411 0.25597334 2.3063313e-39
2.1677001 1.6148728 0.26112482 1.3836561e-39
2.256007 1.6292384 0.26942071 1.2914591e-39
2.3220062 1.6366562 0.27324432 1.1996222e-39
1.7984933 -1.6001109 0.32952797 1.6673256e-38
1.8641043 -1.6222365 0.36133513 6.3567789e-39
1.9205973 -1.6424024 0.31160265 5.0660499e-39
1.7977868 -1.5942938 0.32376066 1.7962893e-38
1.8659137 -1.5550568 0.32598078 1.0963664e-38
1.9143903 -1.560207 0.36812714 4.4272021e-39
1.8944638 -1.4765511 0.3213836 7.7509517e-39
1.9458188 -1.4483423 0.35150892 4.4330021e-39
2.0163331 -1.413007 0.38129276 4.1563956e-39
