# .PCD v0.7 - Point Cloud Data file format
VERSION 0.7
FIELDS x y z rgb
SIZE 4 4 4 4
TYPE F F F F
COUNT 1 1 1 1
WIDTH 1049
HEIGHT 1
VIEWPOINT 0 0 0 1 0 0 0
POINTS 1049
DATA ascii
15.892673 -10.585833 -3.1180749 5.8101253e-39
15.670551 -10.460488 -3.1423175 6.0863521e-39
15.398812 -10.301311 -3.1544733 5.9948781e-39
15.452971 -10.337542 -3.1878614 6.0863549e-39
15.57541 -10.396978 -3.1007693 6.0863521e-39
15.336295 -10.259489 -3.1195412 6.0867136e-39
15.086481 -10.114136 -3.134021 6.0859962e-39
15.135841 -10.147227 -3.1770401 5.8097666e-39
15.037248 -10.081129 -3.1020997 6.086715e-39
14.782509 -9.931675 -3.1455269 5.9016035e-39
14.82272 -9.9586916 -3.1861489 5.8097666e-39
14.570686 -9.8103828 -3.1740155 5.8101253e-39
14.730392 -9.8966608 -3.1025503 5.9016021e-39
14.460403 -9.7361298 -3.108269 5.7179311e-39
14.510739 -9.7700205 -3.1400228 5.9019608e-39
14.289547 -9.6417074 -3.133388 5.8101253e-39
14.366446 -9.693594 -3.1709762 5.902321e-39
14.139571 -9.5609121 -3.1616976 5.9941565e-39
13.949769 -9.4526958 -3.1595066 5.9941565e-39
14.039692 -9.4933758 -3.1191094 5.9026811e-39
13.728297 -9.3224268 -3.1489556 5.9941565e-39
13.816591 -9.3724108 -3.1492467 5.9019608e-39
13.576058 -9.2386322 -3.1727922 5.9941565e-39
13.641223 -9.2632971 -3.1093028 5.9941565e-39
13.370492 -9.1180315 -3.1826179 5.8104855e-39
13.493393 -9.1823778 -3.1340067 5.902321e-39
13.25091 -9.0364828 -3.1159201 5.9026797e-39
13.31519 -9.0803185 -3.150245 5.9941565e-39
12.948212 -8.8487368 -3.1380997 5.9019608e-39
13.009229 -8.8904352 -3.1153932 5.9019608e-39
12.78345 -8.7361393 -3.171978 5.9941551e-39
12.84519 -8.7783318 -3.1594851 5.9019608e-39
12.634171 -8.6341228 -3.1713905 5.7175682e-39
12.726821 -8.6974392 -3.1762869 5.8097638e-39
12.518505 -8.5550776 -3.1604166 5.7175682e-39
12.399302 -8.4736147 -3.1482108 5.7175682e-39
12.412763 -8.4649067 -3.1874433 5.9019594e-39
12.265558 -8.3733711 -3.149636 5.9019594e-39
12.129666 -8.2718363 -3.1497688 5.9019594e-39
11.948767 -8.1484842 -3.1285958 5.9015993e-39
12.036808 -8.1911583 -3.1777279 6.6395245e-39
11.746262 -8.0103846 -3.168807 7.0997838e-39
11.846938 -8.0662155 -3.1532471 8.760024e-39
11.583617 -7.9119997 -3.1333008 7.5611206e-39
11.675812 -7.9623413 -3.1161132 1.115711e-38
11.715242 -7.9850073 -3.1562233 8.4830783e-39
11.456717 -7.8377218 -3.1154885 7.4685663e-39
19.591042 -12.060037 -3.0523078 7.4685663e-39
19.2936 -11.932604 -3.0059662 7.4685663e-39
19.461437 -11.910036 -3.0461814 7.5607619e-39
19.528318 -11.993253 -3.0425355 7.5607619e-39
19.306198 -11.801133 -3.0079291 7.5607633e-39
19.502977 -11.893281 -3.0948596 7.6522387e-39
18.545483 -11.710706 -3.0766926 6.8231969e-39
18.68919 -11.747526 -3.0735714 7.0075881e-39
18.858395 -11.799471 -3.074192 7.0997838e-39
19.277205 -11.72779 -3.0590327 7.5604032e-39
19.340031 -11.793913 -3.041101 7.7440756e-39
18.03686 -11.623721 -3.0963967 6.3636593e-39
18.112148 -11.619981 -3.0831916 6.7317215e-39
18.327663 -11.639223 -3.0669703 6.7313614e-39
18.444408 -11.660152 -3.059902 6.8235556e-39
18.606377 -11.655205 -3.0196853 7.0075881e-39
19.140381 -11.630748 -3.0511107 7.6518785e-39
17.787933 -11.514627 -3.0793252 6.2714636e-39
17.965712 -11.526009 -3.0452929 6.7317215e-39
18.047186 -11.500196 -3.0200613 6.6395245e-39
18.146503 -11.550407 -3.0366902 6.73136e-39
18.222837 -11.585836 -3.0494552 6.6395245e-39
19.047411 -11.560511 -3.036335 7.5600445e-39
17.740828 -11.432945 -3.0199823 6.2707434e-39
17.807838 -11.463278 -3.0313854 6.4554948e-39
17.346214 -11.341277 -3.0904207 5.9948767e-39
17.464521 -11.355634 -3.0485032 6.179268e-39
17.523584 -11.343506 -3.0082822 6.2714636e-39
18.706341 -11.326516 -3.0224183 7.5593242e-39
16.890896 -11.104524 -3.0458758 5.9026811e-39
16.994587 -11.148175 -3.0400565 5.9948767e-39
17.076366 -11.177186 -3.03005 5.9026811e-39
17.134796 -11.190711 -3.0156982 6.0870724e-39
16.773134 -11.051302 -3.0488381 5.9026811e-39
16.56484 -10.961859 -3.0826688 6.0863521e-39
16.630413 -10.981259 -3.0468876 5.9026839e-39
16.382187 -10.840987 -3.0250437 6.0863549e-39
16.147768 -10.73245 -3.0982363 5.9026839e-39
16.238474 -10.769311 -3.0453596 6.0863521e-39
16.045238 -10.664305 -3.0554161 5.8104883e-39
15.849768 -10.545786 -3.0409198 5.9023238e-39
15.712854 -10.466058 -3.0374584 5.9948795e-39
15.473369 -10.328863 -3.0581319 6.0863521e-39
15.268404 -10.214072 -3.0837047 6.1785491e-39
15.371359 -10.26077 -3.0157952 5.7182899e-39
15.183749 -10.15744 -3.0447021 6.0863521e-39
14.965695 -10.03316 -3.0657485 5.9948795e-39
15.078086 -10.086755 -3.0017614 6.0863521e-39
14.884789 -9.978919 -3.0277009 6.086715e-39
14.665328 -9.8529472 -3.057127 5.901965e-39
14.412449 -9.7038422 -3.0771687 5.809768e-39
14.584516 -9.7986536 -3.0087039 5.9948795e-39
14.336088 -9.6524296 -3.0298615 5.7179325e-39
14.08054 -9.5006828 -3.0266171 5.7182899e-39
14.144986 -9.5441675 -3.0608764 5.8101253e-39
14.213625 -9.5904808 -3.0962346 5.8101253e-39
13.957816 -9.4380121 -3.0807834 5.902321e-39
13.843318 -9.3605919 -3.0255818 5.7179311e-39
13.617297 -9.2274055 -3.0252688 5.9026811e-39
13.715173 -9.2937279 -3.0667996 5.9941565e-39
13.408388 -9.1148567 -3.0562227 5.8101253e-39
13.526224 -9.1852055 -3.0635772 5.9019608e-39
13.318396 -9.0632896 -3.0549335 5.9019608e-39
13.087134 -8.9247952 -3.0396483 5.902321e-39
13.174492 -8.9843693 -3.0789442 5.902321e-39
13.225273 -8.9999199 -3.0144939 5.8097652e-39
12.948845 -8.8491697 -3.0729337 5.7179297e-39
12.84629 -8.7790833 -3.0207746 5.6260942e-39
12.6107 -8.6362753 -3.0199547 5.7179297e-39
12.442013 -8.5207529 -3.0692825 5.9019608e-39
12.526089 -8.578331 -3.0448523 5.7175696e-39
12.340156 -8.4509964 -3.0886598 5.7175682e-39
12.100242 -8.3041515 -3.0024524 5.9941551e-39
12.207445 -8.3601122 -3.0818865 5.7175682e-39
11.993369 -8.2135048 -3.0624459 5.8097638e-39
12.04023 -8.2629671 -3.0135932 5.8097652e-39
12.104525 -8.289629 -3.0733659 5.7175682e-39
11.843306 -8.1192646 -3.0241575 5.9019594e-39
11.946087 -8.1810808 -3.0504596 5.9019594e-39
11.732244 -8.0262127 -3.0465488 5.9937963e-39
11.835896 -8.0885859 -3.0734613 5.9941551e-39
11.63203 -7.9548469 -3.0485096 6.085992e-39
11.441136 -7.8353152 -3.0452197 7.8377089e-39
11.536021 -7.8891969 -3.05108 8.9444152e-39
11.236572 -7.7235737 -3.0231709 8.0221002e-39
11.330875 -7.7720695 -3.0649152 7.2845338e-39
11.069394 -7.6206512 -3.0101662 6.9153939e-39
11.189271 -7.6789708 -3.0508316 7.6529575e-39
10.958156 -7.5045524 -3.0036254 6.7310012e-39
11.036869 -7.5345702 -3.0252006 6.8231969e-39
19.2374 -11.842316 -2.9694569 7.4685663e-39
19.303282 -11.882895 -2.9796262 7.3763707e-39
18.968626 -11.75898 -2.9553349 7.3763707e-39
19.034332 -11.772253 -2.9381118 7.3763707e-39
19.170942 -11.746114 -2.9591987 7.5607619e-39
18.673935 -11.657117 -2.990242 7.0997838e-39
18.727232 -11.66337 -2.9717596 7.0997838e-39
18.824402 -11.696731 -2.9600217 7.284175e-39
18.996161 -11.693834 -2.9048145 7.3763707e-39
19.081816 -11.663978 -2.9454412 7.5607633e-39
19.171051 -11.690866 -2.9868727 7.5607633e-39
18.232471 -11.513052 -2.9984608 6.9153925e-39
18.374733 -11.536628 -2.98211 7.0075881e-39
18.491121 -11.51632 -2.9076154 7.1919794e-39
18.619829 -11.569617 -2.9009919 7.284175e-39
18.97773 -11.572975 -2.9293747 7.5607633e-39
19.014225 -11.5678 -2.9624391 7.7444343e-39
17.884468 -11.422308 -2.9928317 6.5473303e-39
17.941593 -11.407025 -2.9765074 6.6395245e-39
18.037487 -11.415949 -2.9663944 6.8231969e-39
18.162048 -11.429291 -2.947588 6.9153925e-39
18.361317 -11.475192 -2.9269187 7.0997838e-39
18.847073 -11.45252 -2.9227941 7.6525988e-39
18.927927 -11.48799 -2.9763002 7.7440756e-39
17.534327 -11.325164 -2.9848301 6.362939e-39
17.654343 -11.351742 -2.9797912 6.8239171e-39
17.740292 -11.330189 -2.9558895 6.5473289e-39
17.837234 -11.314942 -2.9334612 6.7313614e-39
17.953056 -11.336613 -2.9266088 6.7317201e-39
18.698092 -11.321521 -2.94016 7.6518799e-39
18.731108 -11.341512 -2.9858871 7.5596843e-39
17.463867 -11.25446 -2.9476416 6.2707434e-39
17.542753 -11.254681 -2.9356482 6.6395259e-39
17.625629 -11.231539 -2.9113607 6.5473303e-39
18.651688 -11.293424 -2.9059553 7.6526002e-39
17.17697 -11.193474 -2.9983401 6.179268e-39
17.237633 -11.170797 -2.9467211 6.2711035e-39
17.38068 -11.175776 -2.9085264 6.6395259e-39
18.451632 -11.145673 -2.9146976 7.6518799e-39
16.863836 -11.025894 -2.9558268 5.9948781e-39
16.925385 -11.017311 -2.9177909 6.0870724e-39
18.234711 -11.014642 -2.9462161 7.4674873e-39
18.349735 -11.084122 -2.9383283 7.5596829e-39
16.557795 -10.909422 -2.9858086 5.7182899e-39
16.666859 -10.957236 -2.981431 5.9948767e-39
16.764696 -10.997371 -2.9747467 5.9026811e-39
18.075905 -10.918715 -2.9466348 7.4674887e-39
16.431879 -10.826443 -2.9512243 5.9026811e-39
16.53385 -10.84594 -2.9099324 5.9026811e-39
16.18681 -10.711696 -2.9656141 5.9026839e-39
16.207918 -10.702281 -2.9227166 5.7182913e-39
16.339594 -10.765656 -2.9228888 5.9026811e-39
16.06929 -10.657108 -2.9904487 6.0863535e-39
15.894653 -10.54129 -2.9350185 6.0863549e-39
15.986973 -10.579453 -2.9059381 5.8104855e-39
15.625209 -10.407679 -2.9979742 5.9026839e-39
15.737545 -10.4598 -2.9514155 5.9938005e-39
15.513977 -10.33359 -2.9542506 5.7182927e-39
15.374864 -10.240928 -2.9055793 5.8097694e-39
15.180716 -10.133511 -2.9345906 5.9026839e-39
15.273335 -10.195335 -2.974529 5.8104883e-39
14.967638 -10.012869 -2.9581804 5.9941579e-39
14.799483 -9.9217291 -2.9889982 6.1781904e-39
14.859216 -9.9403381 -2.9153152 5.8104869e-39
14.701604 -9.8561096 -2.9480207 6.0863521e-39
14.548805 -9.7641354 -2.9382453 5.9023224e-39
14.413803 -9.68396 -2.9318981 6.0863563e-39
14.16206 -9.5352554 -2.931793 5.9023238e-39
14.254075 -9.5972099 -2.9816635 5.9016049e-39
13.953886 -9.4152241 -2.9591315 5.626097e-39
14.01699 -9.4578028 -2.9927351 5.809768e-39
13.88933 -9.371666 -2.9254036 5.809768e-39
13.663788 -9.2391958 -2.9370363 5.7182913e-39
13.733553 -9.2863703 -2.9718451 5.7182899e-39
13.450104 -9.1141109 -2.9493165 5.7182913e-39
13.563807 -9.1813526 -2.9447846 5.7179325e-39
13.336668 -9.0468388 -2.9435821 5.7179311e-39
13.160709 -8.9464664 -2.9522414 5.6257341e-39
12.994988 -8.8619566 -2.9994988 5.902321e-39
13.035903 -8.8710518 -2.933717 5.7175696e-39
12.775471 -8.7306862 -2.9856911 5.8101253e-39
12.81499 -8.7392063 -2.9209762 5.7175696e-39
12.903226 -8.7993784 -2.959703 5.8097652e-39
12.588845 -8.6031475 -2.9057529 5.8101253e-39
12.686117 -8.6696224 -2.9465067 5.8104855e-39
12.452288 -8.5277901 -2.9191689 5.7179297e-39
12.549378 -8.5942802 -2.9690614 5.7179297e-39
12.253904 -8.4096079 -2.9256763 5.6260942e-39
12.142097 -8.3328762 -2.968998 5.7179297e-39
12.235426 -8.3969259 -2.9477379 5.7182899e-39
11.790647 -8.1086931 -2.9256251 5.9019608e-39
11.637462 -8.0033436 -2.9379888 5.9941565e-39
11.723708 -8.0542011 -2.9682202 5.9019594e-39
11.537162 -7.9260502 -2.954257 6.0863507e-39
11.626754 -7.9792066 -2.9856057 5.9941565e-39
11.3709 -7.8036199 -2.9691191 6.1781876e-39
11.433581 -7.8576317 -2.9414837 6.1785463e-39
11.250077 -7.7328615 -2.9497538 7.0083084e-39
11.329663 -7.7807713 -2.9637821 6.1781876e-39
11.068416 -7.6279659 -2.9460487 7.9299046e-39
11.178599 -7.6877732 -2.9672778 8.852221e-39
10.884666 -7.5170355 -2.9128158 9.4975904e-39
10.938249 -7.53826 -2.9823887 7.1919808e-39
10.840355 -7.4707565 -2.9452925 6.4547745e-39
10.678006 -7.3743143 -2.9114316 6.9157526e-39
10.707229 -7.3636022 -2.9348464 6.4544158e-39
18.719116 -11.604304 -2.8894556 7.284175e-39
18.938271 -11.658174 -2.8959622 7.4685663e-39
18.675882 -11.523618 -2.828896 7.5607619e-39
18.742832 -11.564947 -2.8525662 7.4685663e-39
18.863842 -11.544367 -2.8845809 7.5607619e-39
18.382278 -11.422013 -2.8374617 7.1919794e-39
18.465441 -11.447047 -2.8236592 7.284175e-39
18.525888 -11.457792 -2.8061759 7.4685663e-39
18.670105 -11.452732 -2.8280208 7.4685663e-39
18.763067 -11.442069 -2.8691709 7.6529589e-39
18.079325 -11.338099 -2.8950276 7.0997838e-39
18.138844 -11.323089 -2.8522217 7.0075881e-39
18.2726 -11.380224 -2.8468931 7.1919794e-39
18.558895 -11.317561 -2.8111756 7.7451532e-39
18.641972 -11.368169 -2.8372331 7.6529575e-39
18.726336 -11.365639 -2.8905699 7.6529589e-39
17.752512 -11.235588 -2.8939171 6.6395245e-39
17.880554 -11.23924 -2.8631988 6.9153925e-39
17.934227 -11.29885 -2.8976662 6.9153925e-39
18.053688 -11.295976 -2.864877 7.0997838e-39
18.560286 -11.26481 -2.8382089 7.7447944e-39
17.45801 -11.14992 -2.883677 6.4551346e-39
17.547113 -11.130906 -2.8604343 6.6395245e-39
17.683317 -11.140773 -2.8316152 6.8235556e-39
17.716623 -11.187315 -2.8625076 6.7317201e-39
17.802013 -11.164188 -2.8249397 7.0075895e-39
18.473022 -11.167478 -2.8514659 7.8369901e-39
16.95574 -11.000385 -2.8863387 6.362939e-39
17.149691 -11.039651 -2.8575311 6.2707434e-39
17.276232 -11.083693 -2.8661239 6.4551346e-39
17.336987 -11.047611 -2.8386738 6.4551346e-39
17.501148 -11.0765 -2.827693 6.6395245e-39
18.373686 -11.09859 -2.8096282 7.6529589e-39
16.959417 -10.953864 -2.8380575 6.2707434e-39
17.175232 -10.969324 -2.8121939 6.4551346e-39
18.147591 -10.935837 -2.8535419 8.2050537e-39
18.234329 -10.988106 -2.8409038 8.1128581e-39
16.64044 -10.843801 -2.856631 6.0867122e-39
17.971045 -10.829449 -2.8776886 7.5593228e-39
16.355349 -10.705251 -2.831326 5.9948781e-39
17.794453 -10.723033 -2.8750827 7.4671286e-39
17.866343 -10.74058 -2.8093727 7.9281067e-39
16.122593 -10.622681 -2.8608112 5.9026811e-39
16.219246 -10.662963 -2.8545625 5.9948781e-39
16.339947 -10.695115 -2.8286057 5.9026825e-39
17.764956 -10.679629 -2.8190591 7.3752931e-39
15.995685 -10.562141 -2.8613689 5.9026825e-39
17.440802 -10.509921 -2.8682649 7.1912633e-39
17.588402 -10.598866 -2.8671649 7.3752931e-39
17.605753 -10.583922 -2.819195 7.4671272e-39
15.763875 -10.431779 -2.8425696 5.8104869e-39
17.411789 -10.467319 -2.8132551 7.3752917e-39
15.573353 -10.350671 -2.8981559 5.9941593e-39
17.209265 -10.345569 -2.8053601 7.3752931e-39
15.406402 -10.239709 -2.8448606 5.9023252e-39
15.520385 -10.293076 -2.8211267 5.8104855e-39
17.056108 -10.253497 -2.8049996 7.0068721e-39
15.226157 -10.141877 -2.85551 5.9016049e-39
16.84269 -10.125197 -2.8184979 6.7310055e-39
16.944229 -10.186239 -2.8110449 6.7310055e-39
15.078353 -10.054307 -2.8495555 5.8101282e-39
14.846928 -9.9106989 -2.8058088 5.6257369e-39
14.968432 -9.991806 -2.8503654 5.5339014e-39
14.658655 -9.8061695 -2.8336711 5.8104883e-39
14.754493 -9.8702812 -2.8734829 5.8104883e-39
14.481545 -9.708581 -2.8621097 5.9019608e-39
14.348211 -9.6295223 -2.8563797 5.9019636e-39
14.225821 -9.557663 -2.8526146 5.9941565e-39
14.045318 -9.4566545 -2.8772075 5.9026839e-39
14.122096 -9.4879751 -2.8114421 5.8097652e-39
13.84436 -9.3313217 -2.8459563 5.9016049e-39
13.949982 -9.3924646 -2.8375528 5.9941607e-39
13.68187 -9.2316847 -2.8224931 5.7182927e-39
13.758646 -9.2834883 -2.8581805 5.9023238e-39
13.464031 -9.104125 -2.8358262 5.9016049e-39
13.526187 -9.1461535 -2.8684313 5.5339014e-39
13.299881 -9.0123167 -2.8780015 5.626097e-39
13.397382 -9.0590572 -2.8024604 5.7179325e-39
13.140244 -8.9136047 -2.8528519 5.6257355e-39
13.23158 -8.9660339 -2.8441329 5.7179325e-39
12.956648 -8.8077641 -2.8597717 5.6257355e-39
13.041105 -8.8557777 -2.859632 5.6260956e-39
12.85573 -8.7484426 -2.8560762 5.3495087e-39
12.656214 -8.630928 -2.8391609 5.625374e-39
12.766768 -8.6970997 -2.8546834 5.5335385e-39
12.492426 -8.5372553 -2.8654752 5.7175696e-39
12.356883 -8.4535208 -2.8343105 5.6257341e-39
12.422956 -8.4897804 -2.8316183 5.625374e-39
12.136436 -8.3289909 -2.8451197 5.6257355e-39
12.220677 -8.3779812 -2.8560009 5.6257355e-39
11.794778 -8.1115341 -2.8926253 5.6257341e-39
11.853279 -8.1517658 -2.8556042 5.5338986e-39
11.902437 -8.1855736 -2.8417583 5.6260942e-39
11.482473 -7.9133196 -2.8408933 5.7175696e-39
11.356617 -7.8265848 -2.8670869 5.9941565e-39
11.43381 -7.8797836 -2.87008 5.7175696e-39
11.240866 -7.7468128 -2.8621659 6.0863507e-39
11.08203 -7.6373491 -2.8936906 6.2707434e-39
11.136699 -7.675024 -2.8758011 6.1785477e-39
10.880744 -7.5143266 -2.8489664 6.7317215e-39
10.911378 -7.5354829 -2.8019063 5.9948753e-39
12.855762 -7.5429401 -2.8468347 3.1364745e-39
10.701747 -7.4061494 -2.8561487 9.9589287e-39
10.66396 -7.3799987 -2.8357737 8.114656e-39
12.633023 -7.3940258 -2.8248332 3.2286701e-39
10.486921 -7.2574787 -2.844202 6.1785477e-39
10.530413 -7.2824807 -2.8459237 7.3767322e-39
12.382696 -7.2296472 -2.8224416 3.3208658e-39
10.350967 -7.1435037 -2.8371775 5.9937977e-39
10.458298 -7.1546707 -2.8817022 5.4402624e-39
10.24126 -7.023458 -2.8317442 5.2558712e-39
10.398027 -7.075953 -2.8650951 5.5324581e-39
10.162343 -6.9522142 -2.814815 4.9792843e-39
18.268724 -11.311911 -2.7540331 7.3763707e-39
18.432447 -11.346816 -2.7654302 7.5607619e-39
18.033527 -11.231329 -2.7836289 7.0997838e-39
18.147144 -11.275909 -2.7749865 7.1919794e-39
18.378342 -11.247236 -2.7573128 7.4685663e-39
17.800602 -11.137623 -2.7990355 7.0075881e-39
17.927456 -11.165241 -2.7542861 7.0997838e-39
18.03706 -11.181486 -2.70611 7.284175e-39
18.330006 -11.16477 -2.7500608 7.6529575e-39
18.417297 -11.178073 -2.7897272 7.7451532e-39
17.471275 -11.032388 -2.7976611 6.7317201e-39
17.546473 -11.003931 -2.7590752 7.0075895e-39
17.642353 -11.051271 -2.7613628 6.9153939e-39
17.800417 -11.086147 -2.7219665 7.0075881e-39
18.237822 -11.069143 -2.7362306 7.7451532e-39
18.303684 -11.082711 -2.7725179 7.7451532e-39
17.003841 -10.908938 -2.7964036 6.4551346e-39
17.264706 -10.939322 -2.77705 6.6395245e-39
17.358912 -10.911348 -2.7295823 6.9153939e-39
17.429148 -10.980642 -2.7657709 6.823557e-39
17.566652 -10.991243 -2.7369056 7.0075881e-39
18.156557 -10.967407 -2.7502592 7.6529589e-39
18.600395 -10.913524 -2.7101254 6.8231969e-39
16.859257 -10.816141 -2.7604456 6.362939e-39
17.057816 -10.869707 -2.7683511 6.5473289e-39
17.180319 -10.823875 -2.7014997 6.8231983e-39
17.22422 -10.876383 -2.7332516 6.7317215e-39
17.992641 -10.829482 -2.7513633 8.0213827e-39
18.502438 -10.856049 -2.7225454 6.8231969e-39
16.670862 -10.767468 -2.7656963 6.1785477e-39
16.729099 -10.732676 -2.7270861 6.4551346e-39
16.906153 -10.773096 -2.7315583 6.4551332e-39
17.01605 -10.794029 -2.7247663 6.6395245e-39
17.906113 -10.764488 -2.7639542 8.7585876e-39
18.378614 -10.783397 -2.7308395 6.8231969e-39
16.36808 -10.65456 -2.7745068 6.0863521e-39
16.750446 -10.698041 -2.7064006 6.2707434e-39
18.235672 -10.699527 -2.735908 6.6388056e-39
15.993794 -10.514745 -2.7918098 5.9948795e-39
16.063595 -10.53746 -2.7808197 5.9026839e-39
16.112907 -10.534934 -2.7544816 5.9026811e-39
16.296471 -10.572671 -2.7270923 6.1785477e-39
16.337404 -10.575658 -2.7103729 6.2707434e-39
17.564386 -10.533715 -2.7365527 1.0970204e-38
17.66399 -10.59345 -2.7265878 8.573839e-39
15.902261 -10.47751 -2.7987738 5.9026825e-39
16.082088 -10.479988 -2.7144179 6.0863521e-39
17.416105 -10.444788 -2.7637014 7.1909018e-39
17.502016 -10.49631 -2.7520847 8.1124994e-39
15.596346 -10.320953 -2.7899337 5.9026811e-39
15.682041 -10.332415 -2.7373915 5.9026839e-39
15.762443 -10.362649 -2.7286861 5.9026839e-39
15.822884 -10.379557 -2.7163222 5.9026825e-39
17.249937 -10.345134 -2.7622185 7.2827373e-39
15.415737 -10.201434 -2.7353859 5.9948767e-39
15.581471 -10.288631 -2.7423153 5.9026825e-39
17.043943 -10.209297 -2.7292252 7.3749329e-39
17.186571 -10.282337 -2.7024829 8.3887289e-39
15.23862 -10.128195 -2.7918949 5.8104883e-39
15.338778 -10.172635 -2.7659876 5.7182913e-39
15.063871 -10.01205 -2.7381468 5.7182913e-39
15.171756 -10.061866 -2.7139814 5.8104869e-39
16.846582 -10.091065 -2.7219002 7.1905431e-39
14.925464 -9.9415913 -2.7560534 5.8104883e-39
16.516415 -9.9052248 -2.7400706 6.45442e-39
16.654007 -9.9877424 -2.7388711 6.8228409e-39
14.743958 -9.8313046 -2.7330999 5.7179325e-39
16.391256 -9.8301649 -2.7429538 6.45442e-39
14.56486 -9.7329121 -2.7524772 5.626097e-39
16.251539 -9.7463741 -2.7547264 6.7306495e-39
14.440042 -9.6599236 -2.7497463 5.3495101e-39
14.183345 -9.5086632 -2.7417884 5.7182927e-39
14.271544 -9.5677938 -2.7794275 5.626097e-39
14.330606 -9.5867147 -2.7082329 5.5335413e-39
14.049877 -9.4292984 -2.736167 5.6257355e-39
15.748608 -9.4220352 -2.7149241 7.1001537e-39
13.914717 -9.3486471 -2.7300084 5.5339014e-39
13.766814 -9.2691393 -2.7605731 5.9019608e-39
13.497876 -9.1075373 -2.7455904 5.8097694e-39
13.594411 -9.1726723 -2.7848384 5.7182927e-39
13.661475 -9.1982145 -2.7197411 5.7175696e-39
13.338736 -9.0194025 -2.7709496 5.8104883e-39
13.402428 -9.0431347 -2.70684 5.717571e-39
13.261688 -8.9673042 -2.7358119 5.7182927e-39
13.069279 -8.8560543 -2.7621286 5.6253782e-39
12.86493 -8.7361431 -2.7746253 5.6257369e-39
12.976023 -8.7928629 -2.7143207 5.4417058e-39
12.737101 -8.6585054 -2.7561357 5.441347e-39
12.491234 -8.5184202 -2.7570777 5.2573145e-39
12.565678 -8.5601177 -2.7553611 5.3495101e-39
12.63648 -8.5992413 -2.7526762 5.5339014e-39
12.335329 -8.4298954 -2.7671666 5.4409827e-39
12.420353 -8.4700823 -2.7235146 5.2573145e-39
12.137157 -8.3119764 -2.7839844 5.7172123e-39
12.267883 -8.3838034 -2.7254779 5.1651189e-39
12.042685 -8.2516136 -2.7449274 5.4409869e-39
11.836942 -8.1348391 -2.7549775 5.4413442e-39
11.928087 -8.1860056 -2.753237 5.5335413e-39
11.73578 -8.0709591 -2.7257793 5.2569558e-39
11.477101 -7.9096179 -2.7981589 5.441703e-39
11.539479 -7.9526062 -2.7550697 5.4417044e-39
11.158894 -7.706419 -2.7769237 5.7175696e-39
11.054473 -7.6343055 -2.7908075 5.9019608e-39
11.133862 -7.6891313 -2.7369397 5.5335385e-39
10.959234 -7.5685329 -2.7904611 5.9941565e-39
12.838178 -7.5326228 -2.7780876 3.1364773e-39
10.697848 -7.4034514 -2.7162077 5.9019608e-39
10.751377 -7.4404955 -2.7142882 5.8097652e-39
10.814571 -7.4842291 -2.7068298 5.625374e-39
10.648383 -7.3692193 -2.7574127 5.9945166e-39
12.612885 -7.3822389 -2.7475407 3.1364759e-39
10.44146 -7.2410803 -2.7490587 6.8242787e-39
12.35307 -7.2123494 -2.7533054 3.2286701e-39
10.253928 -7.1110291 -2.7662179 6.8239171e-39
10.372704 -7.193399 -2.7832959 8.114656e-39
10.14986 -7.0315533 -2.7673962 5.9941565e-39
10.209291 -7.0948009 -2.7247188 8.1146602e-39
12.024235 -7.0030117 -2.7407358 3.4130614e-39
10.061638 -6.9485884 -2.7651906 5.5328182e-39
10.107252 -6.9801474 -2.7849743 5.7168507e-39
11.98392 -6.9795327 -2.7142582 3.505257e-39
9.8838568 -6.840126 -2.7234216 5.4406226e-39
9.969224 -6.8847876 -2.7541509 5.440624e-39
10.065748 -6.842586 -2.7880597 5.3480668e-39
9.7585764 -6.7393355 -2.7123597 5.6246551e-39
9.8511753 -6.7535596 -2.7428384 5.7168493e-39
9.6575279 -6.6417007 -2.7028542 5.8090464e-39
9.7239714 -6.6312804 -2.7074211 5.8090449e-39
18.020271 -11.145082 -2.6775942 7.3763707e-39
18.140141 -11.153807 -2.695405 7.5607619e-39
17.749613 -11.028899 -2.6629841 7.0997838e-39
17.840919 -11.034108 -2.638051 7.3763707e-39
17.911812 -11.026321 -2.6356378 7.5607619e-39
18.120483 -11.050209 -2.6924846 7.5607619e-39
18.750357 -11.001512 -2.6778741 6.9153925e-39
18.844303 -11.056634 -2.6504915 6.8231969e-39
18.907528 -11.09373 -2.6184895 6.7310012e-39
17.571342 -10.930822 -2.6362741 7.0075881e-39
17.766008 -10.987826 -2.6141834 7.3763707e-39
17.89809 -10.966232 -2.6336186 7.6529575e-39
17.907566 -10.954807 -2.6350129 7.5607619e-39
18.051085 -10.955806 -2.6821725 7.5607619e-39
18.677038 -10.958493 -2.6943476 6.8231969e-39
17.342361 -10.842494 -2.6601622 6.9153925e-39
17.434361 -10.883318 -2.6659906 7.0075881e-39
17.847309 -10.832129 -2.6261463 7.5607619e-39
17.9328 -10.866727 -2.6646283 7.5607619e-39
18.392006 -10.817787 -2.6266956 6.9153925e-39
18.430878 -10.840651 -2.6056576 6.9153925e-39
16.987499 -10.739162 -2.6834388 6.7313614e-39
17.112667 -10.756566 -2.6661742 6.9153925e-39
17.210476 -10.743559 -2.606926 7.0075881e-39
17.698528 -10.716294 -2.604254 7.5607619e-39
17.774704 -10.723936 -2.653945 7.5607619e-39
18.237505 -10.726913 -2.6835618 6.9153925e-39
18.329361 -10.780941 -2.6573975 6.9153925e-39
16.55917 -10.647546 -2.6993849 6.362939e-39
16.604368 -10.628698 -2.6827984 6.362939e-39
16.752514 -10.614775 -2.646317 6.6391672e-39
16.837214 -10.644033 -2.6474552 6.6391658e-39
16.937313 -10.670778 -2.6388538 6.8231969e-39
17.071711 -10.693871 -2.6228416 6.8231969e-39
17.599257 -10.605407 -2.6150365 7.4685663e-39
17.635639 -10.601889 -2.6458848 7.3763707e-39
17.780369 -10.688895 -2.6932497 7.1919794e-39
18.071337 -10.655248 -2.6330163 7.0075881e-39
18.108049 -10.65077 -2.6906369 6.7310012e-39
16.385735 -10.559666 -2.6711125 6.1785477e-39
16.441648 -10.556091 -2.6643693 6.1785477e-39
16.53673 -10.513831 -2.6241562 6.5473303e-39
16.623302 -10.592855 -2.661876 6.4551332e-39
16.744032 -10.573164 -2.6087403 6.7310012e-39
17.546442 -10.522954 -2.6578159 7.1919794e-39
17.620308 -10.567252 -2.6944249 7.3763721e-39
17.808315 -10.525856 -2.6204085 7.0075881e-39
17.928013 -10.557791 -2.676836 6.7310012e-39
16.137466 -10.422953 -2.6306412 6.1785477e-39
16.277935 -10.466711 -2.6300561 6.362939e-39
16.323395 -10.448843 -2.613852 6.362939e-39
17.454273 -10.467678 -2.6186743 7.284175e-39
17.664343 -10.440759 -2.6247075 6.8231969e-39
17.75403 -10.455339 -2.6764646 6.6388056e-39
15.849065 -10.36244 -2.6865263 5.8104883e-39
15.937952 -10.351589 -2.6556182 6.0863521e-39
16.023926 -10.372734 -2.6352496 6.1785477e-39
16.105412 -10.379014 -2.6021812 6.1785477e-39
17.269167 -10.331753 -2.690557 1.0693617e-38
17.34996 -10.38009 -2.6530981 7.5600459e-39
17.486843 -10.335845 -2.6235607 6.6388056e-39
17.565779 -10.35716 -2.6607451 6.7310026e-39
15.571361 -10.21453 -2.650646 5.8104883e-39
15.714599 -10.240511 -2.6297202 6.0863521e-39
17.169344 -10.238996 -2.6254351 7.1916235e-39
17.2264 -10.281314 -2.6093383 7.1919794e-39
17.316118 -10.234951 -2.6229143 6.8228381e-39
17.42811 -10.250844 -2.6650348 6.3618642e-39
15.369144 -10.148429 -2.6827734 5.9026839e-39
15.457783 -10.184657 -2.6759455 5.9026839e-39
16.932657 -10.105998 -2.6381285 1.1062399e-38
17.040541 -10.12122 -2.6057692 7.0072308e-39
17.15254 -10.187707 -2.6063769 6.9153939e-39
15.152002 -10.005047 -2.6230109 5.9026839e-39
15.253461 -10.05733 -2.6331875 5.8104883e-39
16.826847 -10.042848 -2.6459184 8.3887289e-39
16.950516 -10.092203 -2.616457 7.743721e-39
17.083069 -10.097189 -2.6122725 6.9150352e-39
14.900587 -9.9035244 -2.6869702 5.7182927e-39
15.027949 -9.9556465 -2.6448812 5.8104869e-39
16.645554 -9.9586582 -2.6894529 7.1905445e-39
14.752328 -9.804986 -2.6389525 5.8104883e-39
14.87106 -9.8624458 -2.6172838 5.8104869e-39
16.436682 -9.8218346 -2.6556964 7.0983488e-39
16.578768 -9.8947849 -2.630827 7.0979873e-39
14.631068 -9.7454987 -2.6594765 5.7182927e-39
16.250027 -9.7103004 -2.6489854 6.9146778e-39
14.466387 -9.6462288 -2.6399369 5.7182941e-39
16.100613 -9.6326332 -2.6710892 6.4540626e-39
14.208961 -9.5053387 -2.6647456 5.7175738e-39
14.331493 -9.5666332 -2.6256986 5.7182927e-39
15.960083 -9.5485573 -2.6708002 6.3618684e-39
16.077065 -9.5953512 -2.620795 7.098709e-39
14.084834 -9.4223013 -2.6211469 5.626097e-39
15.77678 -9.4388905 -2.685647 6.8232081e-39
15.827669 -9.4693365 -2.6714756 6.5462611e-39
15.900031 -9.4896908 -2.6148744 6.7306481e-39
13.975607 -9.3693943 -2.6613064 5.3495101e-39
15.595747 -9.3080845 -2.6098313 6.454064e-39
15.738665 -9.3933821 -2.611042 6.5462583e-39
13.748115 -9.2367144 -2.6576538 5.4417072e-39
13.846098 -9.2925415 -2.6565561 5.441347e-39
15.449194 -9.2206163 -2.6187232 6.5462611e-39
13.566584 -9.1343241 -2.6812782 5.6257341e-39
13.668015 -9.1829004 -2.6224515 5.3495101e-39
15.386948 -9.183465 -2.6636829 7.1001537e-39
15.407372 -9.1956539 -2.667212 7.0079581e-39
13.43973 -9.048914 -2.6271503 5.3495115e-39
15.145247 -9.0173597 -2.6655405 7.1930696e-39
13.17691 -8.9099789 -2.6993129 5.7182927e-39
13.215829 -8.9172287 -2.6310215 5.4409827e-39
13.305219 -8.9775438 -2.6680121 5.625374e-39
15.062495 -8.9680901 -2.6183817 7.191992e-39
13.086593 -8.8489075 -2.6619315 5.6257369e-39
12.848452 -8.7064171 -2.6505635 5.5339014e-39
12.95854 -8.7716398 -2.6544671 5.5335413e-39
12.699189 -8.6235943 -2.693054 5.34915e-39
12.767887 -8.651825 -2.6155238 5.4417058e-39
12.538525 -8.5205088 -2.6408491 5.2573145e-39
12.641528 -8.5844383 -2.6625886 5.4406268e-39
12.372959 -8.4288254 -2.6595221 5.2573145e-39
12.451607 -8.4734325 -2.658514 5.5331825e-39
12.186462 -8.3105803 -2.6019034 5.4409869e-39
12.247452 -8.3580437 -2.6619892 5.34915e-39
12.040132 -8.2339344 -2.640085 5.2569558e-39
12.142091 -8.2978382 -2.6624975 5.0729246e-39
11.941023 -8.1776562 -2.6442695 5.0729232e-39
11.667681 -8.0156937 -2.6509628 5.2565956e-39
11.744957 -8.0603266 -2.6601598 5.3487899e-39
11.489923 -7.9018779 -2.6189477 5.2565956e-39
11.535145 -7.9412832 -2.6708097 5.4406268e-39
11.352922 -7.824038 -2.6204777 5.4409869e-39
11.442013 -7.8854365 -2.6575484 5.441347e-39
11.170445 -7.714397 -2.6670017 5.1651175e-39
11.128613 -7.6855068 -2.6168668 5.1651189e-39
12.915781 -7.578155 -2.6178741 3.0442817e-39
10.791908 -7.4685454 -2.6311014 5.2573117e-39
10.813904 -7.483768 -2.65207 5.3491472e-39
12.684067 -7.4239016 -2.6257782 3.1364759e-39
12.626363 -7.3901277 -2.6775992 3.1364759e-39
10.388966 -7.2046757 -2.6752582 5.9945166e-39
10.461138 -7.2547274 -2.6296291 5.7175696e-39
10.504441 -7.2847576 -2.6216381 5.7175696e-39
12.349301 -7.2101502 -2.6455719 3.2286715e-39
10.141541 -7.0477195 -2.6554832 6.4554962e-39
10.040569 -6.977551 -2.6941745 7.2845394e-39
11.997025 -6.9871659 -2.6479952 3.2286715e-39
12.00393 -6.9911866 -2.6668375 3.3208658e-39
9.8425503 -6.8470368 -2.6410351 6.3629432e-39
9.6507034 -6.7066193 -2.6452532 5.3484297e-39
9.7506809 -6.7690554 -2.6726727 5.6250152e-39
11.594283 -6.735878 -2.6176455 3.5052584e-39
11.637896 -6.7612157 -2.6526759 3.4130614e-39
9.5738764 -6.6325026 -2.6587338 5.7168521e-39
9.6252136 -6.6680841 -2.6729736 5.5331783e-39
9.377243 -6.5098104 -2.6176538 5.717571e-39
9.4744549 -6.5499568 -2.6516118 5.8094065e-39
9.5234137 -6.5585322 -2.6653168 5.8094051e-39
9.6218386 -6.5685863 -2.6859303 5.9012406e-39
9.2783232 -6.421052 -2.6168122 5.9019608e-39
9.3468094 -6.4347544 -2.6361103 5.9016007e-39
9.4176712 -6.4427915 -2.6425228 5.9012406e-39
9.1885109 -6.3324013 -2.6113579 5.9934376e-39
9.229537 -6.3428798 -2.6052508 5.9934362e-39
9.1551151 -6.2961783 -2.601867 5.9934376e-39
19.585537 -11.32201 -2.5428545 5.9934362e-39
19.162439 -11.215651 -2.5985019 6.4544144e-39
19.336454 -11.275632 -2.5802307 6.3622187e-39
19.446339 -11.269596 -2.5247819 6.2700231e-39
19.019175 -11.131798 -2.5516367 6.4544144e-39
19.127739 -11.153929 -2.5247903 6.3622187e-39
18.847322 -11.049346 -2.5467355 6.54661e-39
17.670942 -10.903537 -2.5747015 7.6529575e-39
17.746201 -10.911562 -2.5856669 7.6529589e-39
18.696966 -10.970185 -2.5084088 6.6388056e-39
17.557146 -10.850209 -2.5581257 7.3763721e-39
17.649643 -10.826725 -2.5461359 7.6529575e-39
17.758137 -10.854884 -2.5874062 7.7451546e-39
18.472813 -10.865316 -2.5449772 6.8231969e-39
18.511169 -10.887877 -2.5502486 6.8231969e-39
17.198513 -10.71128 -2.5554907 7.0075881e-39
17.334906 -10.758709 -2.5382409 7.1919794e-39
17.466024 -10.777097 -2.5196469 7.4685663e-39
17.539059 -10.720946 -2.5133235 7.6529575e-39
17.66605 -10.77305 -2.5612643 7.6529589e-39
18.165154 -10.710565 -2.5287724 7.0075881e-39
16.994074 -10.608472 -2.5496302 7.0075881e-39
17.461521 -10.623171 -2.5189974 7.5607619e-39
17.611568 -10.689049 -2.5660508 7.6529589e-39
18.116562 -10.681913 -2.5742836 6.9153925e-39
16.697708 -10.519823 -2.5774338 6.7310012e-39
16.830029 -10.542477 -2.5614283 6.8231969e-39
16.994411 -10.584165 -2.5006466 7.0075881e-39
17.365801 -10.539885 -2.5051887 7.6529575e-39
17.480381 -10.54638 -2.5721545 7.4685663e-39
17.528654 -10.58815 -2.5792577 7.5607619e-39
17.780943 -10.509678 -2.5394366 7.0075881e-39
17.811897 -10.527973 -2.5952392 7.0997838e-39
16.347029 -10.416805 -2.5940533 6.4551346e-39
16.510183 -10.449314 -2.5723045 6.7310012e-39
16.625402 -10.450285 -2.5422881 6.7310012e-39
17.343374 -10.434518 -2.5520041 7.4685663e-39
17.411152 -10.492054 -2.5619678 7.5607619e-39
17.569742 -10.410191 -2.5346093 7.0997838e-39
17.607845 -10.432767 -2.5782132 7.0997838e-39
16.178402 -10.356016 -2.5789566 6.362939e-39
16.279146 -10.326577 -2.5363085 6.638807e-39
16.461138 -10.37078 -2.5171692 6.7310012e-39
16.568541 -10.390639 -2.50969 6.8231969e-39
17.192511 -10.310694 -2.504993 7.6529575e-39
17.25449 -10.335404 -2.5451608 7.3763707e-39
17.347273 -10.328429 -2.5400527 7.1919794e-39
17.458792 -10.364593 -2.5639384 7.0997838e-39
17.538958 -10.391952 -2.5048656 7.0997838e-39
15.760823 -10.202421 -2.569243 6.0863521e-39
15.872358 -10.251722 -2.5645263 6.0863521e-39
15.997668 -10.2865 -2.5616937 6.2707434e-39
16.061165 -10.257788 -2.5370908 6.4547745e-39
17.182592 -10.279957 -2.5035479 7.5607619e-39
17.258194 -10.281599 -2.5705926 7.1919794e-39
15.535509 -10.123783 -2.5885329 5.9945166e-39
15.855507 -10.195046 -2.5274706 6.2707434e-39
15.908349 -10.160216 -2.5014904 6.4551346e-39
15.337288 -10.049955 -2.5776482 5.8104883e-39
15.548751 -10.076361 -2.5346818 6.0863521e-39
15.614171 -10.084964 -2.5002847 6.1785477e-39
17.002481 -10.074085 -2.5999494 6.9150352e-39
15.065495 -9.9044571 -2.5428321 5.9026839e-39
15.144161 -9.9124317 -2.5233145 5.9023224e-39
15.315897 -9.9806948 -2.540905 5.9945166e-39
16.821735 -9.9548378 -2.5965786 7.2827443e-39
14.827298 -9.8120317 -2.5668004 5.8104883e-39
14.931796 -9.859643 -2.5633488 5.8104883e-39
15.004037 -9.8856983 -2.5541046 5.7182927e-39
16.625179 -9.8985004 -2.5902228 1.0970562e-38
16.710382 -9.8889599 -2.5793903 7.3749385e-39
14.620381 -9.717289 -2.5942571 5.626097e-39
14.707233 -9.7325745 -2.5354009 5.7182927e-39
16.371412 -9.7474098 -2.5743041 9.0337368e-39
14.495353 -9.6237335 -2.5302491 5.7182927e-39
14.595942 -9.6589317 -2.5056927 5.7182927e-39
16.217596 -9.632432 -2.526721 1.0325553e-38
14.346635 -9.5456924 -2.5353301 5.7182927e-39
15.996785 -9.5243597 -2.5615523 7.0979859e-39
16.046228 -9.5306482 -2.5231709 9.7713004e-39
16.121613 -9.5986805 -2.5582826 7.4653307e-39
14.104579 -9.4151621 -2.5434289 5.7182927e-39
14.212267 -9.4768 -2.5526123 5.7182927e-39
15.799545 -9.4069242 -2.5527618 6.6380896e-39
13.97811 -9.3509064 -2.5811203 5.6260998e-39
13.75144 -9.2191105 -2.5789421 5.6253782e-39
13.856161 -9.2693272 -2.5286446 5.5339028e-39
15.565375 -9.2675018 -2.5373821 6.2689483e-39
13.578942 -9.1230555 -2.5857716 5.1651203e-39
13.640462 -9.1447096 -2.5384507 5.626097e-39
15.298772 -9.1087675 -2.5380638 5.808696e-39
15.395486 -9.1663504 -2.531898 5.9008889e-39
13.475788 -9.0537519 -2.5466874 5.2573159e-39
13.54031 -9.0775671 -2.5002787 5.6260998e-39
15.207096 -9.0541849 -2.5447936 5.9927286e-39
13.279407 -8.9409695 -2.5478899 5.1651203e-39
13.350647 -8.9792976 -2.5422678 5.2573159e-39
15.073114 -8.9744129 -2.5767334 6.1785603e-39
15.114844 -8.999259 -2.5511615 6.0852843e-39
13.054309 -8.8082457 -2.5611999 5.2573145e-39
13.134314 -8.8622274 -2.595845 5.4409841e-39
13.207233 -8.892375 -2.5149887 5.072926e-39
12.94838 -8.74298 -2.5403488 5.2569558e-39
14.734861 -8.7517633 -2.5507655 6.731374e-39
12.747114 -8.619359 -2.5193193 5.3487885e-39
12.828566 -8.6744347 -2.5539246 5.4409827e-39
12.598902 -8.5373163 -2.5445549 5.34915e-39
12.682802 -8.5941687 -2.5797968 5.3495101e-39
12.391829 -8.414876 -2.5384874 5.2573145e-39
12.461905 -8.4624624 -2.570821 5.2573145e-39
12.518161 -8.482604 -2.5101883 5.4406254e-39
14.267909 -8.4538326 -2.5111303 7.1930724e-39
14.325832 -8.4881525 -2.5006573 7.1005166e-39
12.24852 -8.3352299 -2.5533261 5.0729232e-39
12.325346 -8.3786278 -2.551579 5.1651189e-39
12.071924 -8.2324705 -2.5426173 5.0729232e-39
12.145641 -8.2739716 -2.5405788 5.1651189e-39
11.865606 -8.1174393 -2.5590296 4.9807304e-39
11.958275 -8.1722183 -2.5618267 5.2569544e-39
12.006686 -8.1879816 -2.5115552 4.888532e-39
11.749276 -8.0463419 -2.5425065 5.072926e-39
11.552313 -7.9281192 -2.5415275 4.7963378e-39
11.646529 -7.9927783 -2.5874357 4.888532e-39
11.373755 -7.8219876 -2.5432436 5.072203e-39
11.430695 -7.861146 -2.5807242 5.1644e-39
11.196054 -7.7159309 -2.551965 5.0725631e-39
11.267684 -7.7652955 -2.5845473 5.3484311e-39
11.322167 -7.786509 -2.5153742 4.7963378e-39
11.055257 -7.6348467 -2.5757165 5.0722044e-39
11.145213 -7.6808925 -2.524298 4.9803675e-39
10.899446 -7.5272427 -2.5000823 5.1640399e-39
10.96078 -7.5696006 -2.5299635 5.072203e-39
12.851746 -7.5405827 -2.5678289 3.2279527e-39
10.743131 -7.4347887 -2.5339866 4.9803675e-39
10.811586 -7.4821644 -2.5813198 4.9807262e-39
12.68529 -7.4246173 -2.5620186 3.0439229e-39
12.764596 -7.4894495 -2.5227747 3.2279527e-39
12.622601 -7.3879256 -2.5129209 3.1357584e-39
10.474968 -7.264318 -2.5462604 5.1651189e-39
12.391531 -7.2348051 -2.592057 3.1364773e-39
12.433761 -7.2594614 -2.5470624 3.0442817e-39
10.083798 -7.0075927 -2.5651431 5.7175696e-39
10.103583 -7.0213418 -2.5215931 5.3487871e-39
12.038233 -7.0111642 -2.5094619 3.1364773e-39
10.071465 -6.9990211 -2.5716972 5.7179297e-39
11.985051 -6.9801912 -2.5675519 3.3208686e-39
12.003146 -6.9907303 -2.5281312 3.1364773e-39
9.7741842 -6.8065314 -2.5098891 5.6260942e-39
9.8365355 -6.8499527 -2.5684857 5.9023224e-39
9.6892414 -6.7473788 -2.5999033 6.3625831e-39
11.579793 -6.7274604 -2.5475786 3.3208672e-39
9.5451651 -6.6562324 -2.5359414 5.6257369e-39
9.3581648 -6.5235748 -2.5448155 5.4406268e-39
9.440074 -6.5784125 -2.5602334 5.5331825e-39
11.248735 -6.5188985 -2.5639729 3.505257e-39
9.1811256 -6.4067836 -2.5165422 5.5328224e-39
9.2492399 -6.445416 -2.5418665 5.4406282e-39
11.190687 -6.4852586 -2.5184529 3.5052598e-39
11.203899 -6.4929152 -2.5375898 3.5052598e-39
9.0437508 -6.3109207 -2.518029 5.7172137e-39
9.135129 -6.3505101 -2.5588529 5.717571e-39
8.9558468 -6.22369 -2.5355668 5.993439e-39
9.0383453 -6.2654028 -2.5634768 5.9937977e-39
9.1120815 -6.2402921 -2.5764911 5.9934362e-39
9.2568007 -6.2993379 -2.5907025 5.9012406e-39
8.7937298 -6.123764 -2.5118482 6.1781918e-39
8.8501997 -6.1298857 -2.5330796 5.993439e-39
8.953433 -6.1702876 -2.550992 5.9016007e-39
9.0474977 -6.1894751 -2.5581889 5.9012406e-39
8.6649094 -6.0215416 -2.5146315 5.8094051e-39
8.7361298 -6.0553012 -2.5158622 5.9937963e-39
8.8533344 -6.0758319 -2.528841 5.9934362e-39
8.5586796 -5.9452586 -2.5088997 5.9019608e-39
8.6405659 -5.9775977 -2.5137799 5.9937963e-39
19.243219 -11.165768 -2.4845319 6.54661e-39
19.334827 -11.163143 -2.4824104 6.0856318e-39
18.901402 -11.035599 -2.4812992 6.4544144e-39
19.048515 -11.052755 -2.438765 6.4544144e-39
19.133436 -11.060659 -2.4013476 6.2700231e-39
19.211548 -11.050383 -2.4665825 5.7168493e-39
18.654339 -10.918262 -2.4488659 6.6388056e-39
18.775454 -10.962064 -2.4376786 6.6388056e-39
18.854265 -10.980877 -2.4207108 6.7310012e-39
19.04635 -10.955348 -2.4316409 5.8090449e-39
18.378386 -10.809776 -2.4656675 6.7310012e-39
18.529305 -10.858456 -2.4324684 6.7310012e-39
17.310675 -10.706214 -2.4972363 7.4685663e-39
17.488615 -10.740576 -2.4976757 7.5607619e-39
18.177723 -10.717976 -2.4780905 7.0075881e-39
18.257067 -10.73842 -2.4230525 6.8231969e-39
18.37989 -10.784145 -2.4128375 6.7310012e-39
18.86865 -10.798708 -2.4225576 5.6246537e-39
17.099804 -10.625134 -2.4914854 7.284175e-39
17.102642 -10.602225 -2.4672256 7.284175e-39
17.253635 -10.646046 -2.4641166 7.4685663e-39
17.35581 -10.659013 -2.4620292 7.5607619e-39
18.103865 -10.674427 -2.4288373 6.9153925e-39
17.049438 -10.532369 -2.4226766 7.3763707e-39
17.166689 -10.567632 -2.4269335 7.5607619e-39
17.351574 -10.593815 -2.4656043 7.5607619e-39
17.780895 -10.509648 -2.4881148 7.0075881e-39
17.825373 -10.535938 -2.4428933 7.0997838e-39
16.779501 -10.46242 -2.4690194 7.0075881e-39
16.862957 -10.465802 -2.4204836 7.1919794e-39
17.166435 -10.468413 -2.4268975 7.5607619e-39
17.245199 -10.466667 -2.4753609 7.5607619e-39
16.573174 -10.345726 -2.4386635 7.0075881e-39
16.606741 -10.390639 -2.4915185 6.9153925e-39
16.993105 -10.338198 -2.4023931 7.5607619e-39
17.037689 -10.316163 -2.4332757 7.5607619e-39
17.127012 -10.353776 -2.4625082 7.5607619e-39
17.345909 -10.310914 -2.4522493 7.1919794e-39
17.412003 -10.341849 -2.4867342 7.1919794e-39
17.512842 -10.376476 -2.4379673 7.0997838e-39
16.253471 -10.25169 -2.4737091 6.7310012e-39
16.356615 -10.257743 -2.4539988 6.8231969e-39
16.975718 -10.229642 -2.4244249 7.5607619e-39
17.055729 -10.216356 -2.4235463 7.4685663e-39
17.131094 -10.259008 -2.4564891 7.3763707e-39
17.23032 -10.271214 -2.448348 7.284175e-39
15.719971 -10.107941 -2.4945476 6.362939e-39
16.049147 -10.169098 -2.4657412 6.638807e-39
16.138336 -10.144128 -2.4212434 6.8231969e-39
15.570295 -10.011669 -2.4595499 6.1785477e-39
15.746683 -10.079682 -2.4760692 6.1785477e-39
15.82129 -10.058969 -2.4421554 6.6388056e-39
15.297317 -9.924449 -2.4936845 6.0863521e-39
15.353064 -9.9273872 -2.4473946 6.1785477e-39
15.441484 -9.9288731 -2.4280787 6.0863521e-39
15.580257 -9.9281969 -2.4049459 6.5469701e-39
15.628225 -9.9813099 -2.4348962 6.4551346e-39
15.05086 -9.851409 -2.4969354 5.9941579e-39
15.153725 -9.8312988 -2.448432 6.0863521e-39
15.298143 -9.8587751 -2.4055393 6.2707434e-39
15.437854 -9.8819962 -2.4052362 6.4551346e-39
14.778074 -9.7368183 -2.4943197 5.9026839e-39
14.859932 -9.758584 -2.4759679 5.9026825e-39
14.942046 -9.7370729 -2.4573269 5.9941565e-39
15.038143 -9.7563047 -2.4080458 6.0863521e-39
14.634765 -9.6107197 -2.4173417 5.9023238e-39
14.780226 -9.6742678 -2.4307141 5.9938005e-39
14.851895 -9.6997519 -2.4425008 5.9019622e-39
14.916979 -9.6992178 -2.4316843 6.0863521e-39
14.366491 -9.5070915 -2.4455767 5.626097e-39
14.484426 -9.5642385 -2.4447563 5.9948795e-39
14.557567 -9.5915327 -2.4360998 5.9026839e-39
14.24608 -9.4479609 -2.4456315 5.626097e-39
15.958388 -9.4554529 -2.486336 9.5872693e-39
13.959327 -9.318202 -2.4970975 5.7182927e-39
14.0685 -9.3707819 -2.4760346 5.7182927e-39
14.141981 -9.3993244 -2.448163 5.626097e-39
15.845483 -9.3771267 -2.480175 1.0231201e-38
13.905171 -9.2619925 -2.4272285 5.626097e-39
15.546242 -9.2336817 -2.4894073 7.1901801e-39
15.616886 -9.2756405 -2.4781895 8.1099812e-39
13.746554 -9.1860676 -2.4589949 5.5339014e-39
15.343304 -9.1131468 -2.4790461 6.2696658e-39
13.463023 -9.025753 -2.4665844 5.6260984e-39
13.551625 -9.0656023 -2.4241662 5.3495101e-39
15.161611 -9.0052299 -2.4715626 5.9005259e-39
13.249371 -8.9016323 -2.4656696 5.4417072e-39
13.388511 -8.9757986 -2.4336181 5.3495101e-39
15.072788 -8.9415855 -2.4461653 6.4533396e-39
13.130814 -8.8314342 -2.453032 5.2573173e-39
14.887448 -8.8316441 -2.4483123 5.8090534e-39
14.967808 -8.8901205 -2.4831569 5.7165004e-39
12.99407 -8.7488537 -2.4369049 5.1651189e-39
14.691568 -8.704854 -2.4161339 5.3477165e-39
14.777732 -8.7665806 -2.4516802 5.6243034e-39
12.861322 -8.67803 -2.4584188 4.9807304e-39
14.56925 -8.6323795 -2.4380548 5.7165032e-39
14.631535 -8.6692829 -2.4273691 5.5321105e-39
12.638736 -8.5460749 -2.4705741 5.0729246e-39
12.7306 -8.5898266 -2.4058599 4.8885348e-39
14.376403 -8.518116 -2.4887445 6.9161254e-39
14.44376 -8.5580254 -2.4691365 5.8097806e-39
14.508447 -8.5963526 -2.4488106 5.6246705e-39
12.439863 -8.4295473 -2.4765415 5.3487871e-39
12.557958 -8.4914551 -2.4275842 5.072926e-39
14.272887 -8.4361916 -2.4090517 5.2558894e-39
12.261036 -8.3171997 -2.440881 4.9807276e-39
12.362731 -8.3772812 -2.4433506 5.1643972e-39
14.152998 -8.3653297 -2.4194133 5.5331951e-39
12.094954 -8.222002 -2.4427757 5.1647573e-39
12.165933 -8.2614775 -2.4395585 5.3484297e-39
13.891238 -8.2106123 -2.4247963 7.1008754e-39
13.990623 -8.2693548 -2.4219608 6.8242899e-39
11.884339 -8.1045475 -2.4516726 4.888532e-39
11.954163 -8.1435337 -2.448807 5.0725631e-39
12.028248 -8.1853333 -2.4466546 5.1651189e-39
13.764102 -8.1354666 -2.422461 7.2849093e-39
11.752387 -8.031517 -2.4583609 4.7963378e-39
11.819382 -8.0687752 -2.4553242 4.888532e-39
11.556746 -7.9144893 -2.4341092 4.8885348e-39
11.653901 -7.9754043 -2.4601316 4.7963378e-39
11.38919 -7.8161712 -2.4481103 4.7041435e-39
11.456708 -7.8569813 -2.4570286 4.7041435e-39
11.259343 -7.7433033 -2.4851737 4.7963378e-39
11.339922 -7.7823601 -2.4129934 4.6119479e-39
11.079752 -7.6277733 -2.4374747 4.7037834e-39
11.143765 -7.6691575 -2.4595902 4.7037834e-39
10.950809 -7.546916 -2.417074 4.7963392e-39
11.009915 -7.5876498 -2.4460034 4.7963392e-39
10.767265 -7.4359579 -2.4231625 4.9796486e-39
10.826017 -7.476532 -2.4598274 4.9800088e-39
12.650185 -7.4223204 -2.4363267 3.4119852e-39
12.71294 -7.4591413 -2.494225 3.2279527e-39
10.584302 -7.3248711 -2.4430649 4.9796486e-39
10.654717 -7.3736024 -2.4823914 4.8881733e-39
12.492787 -7.3119464 -2.4330089 3.1357598e-39
12.551288 -7.3461866 -2.4715791 3.1357584e-39
10.444664 -7.2433028 -2.4786556 4.9807248e-39
10.539761 -7.2940464 -2.4175785 4.9800102e-39
12.368194 -7.22118 -2.4533648 3.1361186e-39
12.440708 -7.2725067 -2.4497087 3.1357584e-39
10.352577 -7.179441 -2.4269326 4.8881733e-39
12.312844 -7.1888638 -2.4157276 3.2279541e-39
10.095476 -7.0157075 -2.4904423 5.2562355e-39
10.130408 -7.0399823 -2.4478536 4.9807262e-39
12.075493 -7.0328655 -2.4475572 3.1364773e-39
9.7299681 -6.7757401 -2.4423983 5.1643972e-39
11.569252 -6.7213354 -2.4534159 3.3208686e-39
11.611212 -6.7457128 -2.4120789 3.1364773e-39
9.4827518 -6.6172638 -2.4282246 5.3495073e-39
9.5636902 -6.6737452 -2.4765458 5.5335385e-39
9.3492804 -6.5376129 -2.4345093 5.3495087e-39
9.1530876 -6.4136276 -2.4032185 5.2573145e-39
9.2516556 -6.4693475 -2.4557483 5.0729246e-39
11.15368 -6.4638119 -2.4538448 3.3208686e-39
9.0424614 -6.3295879 -2.4393718 4.703782e-39
9.1200132 -6.3816791 -2.4383924 4.7034233e-39
8.8822365 -6.2238278 -2.441051 5.2565956e-39
8.9662457 -6.277524 -2.449887 4.97965e-39
10.784311 -6.2341957 -2.4192255 3.4130642e-39
10.830853 -6.2611003 -2.4609265 3.5974541e-39
8.7550974 -6.1347408 -2.4376624 5.6253782e-39
8.8327179 -6.1789384 -2.4618299 5.6253796e-39
8.5862188 -6.0164189 -2.4401808 5.9019636e-39
8.6569662 -6.0552745 -2.4638755 5.9938005e-39
8.712925 -6.092617 -2.4636586 5.9938005e-39
8.3893089 -5.9026489 -2.4084322 5.9938005e-39
8.4587364 -5.9282966 -2.4381101 5.9019636e-39
8.5461073 -5.9670911 -2.4640291 5.9937977e-39
8.679966 -5.9506111 -2.4856009 6.0856318e-39
8.7521753 -5.9748664 -2.48103 5.9934362e-39
8.2983475 -5.8226867 -2.4302063 5.9937977e-39
8.3537893 -5.8451109 -2.4512448 5.9937977e-39
8.4387541 -5.8480973 -2.4814386 6.0856332e-39
8.5259476 -5.8536596 -2.4599681 6.0856318e-39
8.0891953 -5.708992 -2.4098036 5.9937963e-39
8.153861 -5.7291245 -2.4271059 5.9019608e-39
8.2512083 -5.7651348 -2.4466219 5.9937977e-39
8.3447218 -5.7508278 -2.4417281 6.085992e-39
8.4214697 -5.7794847 -2.4419634 6.0856318e-39
8.0614281 -5.6500854 -2.4189529 5.9941565e-39
8.1587105 -5.6579952 -2.4275453 6.085992e-39
8.2323246 -5.6556206 -2.4108706 6.0856318e-39
7.9685717 -5.5951252 -2.4026051 6.0863521e-39
8.0155659 -5.5818706 -2.4109941 5.9019608e-39
19.189438 -11.120717 -2.3530083 6.54661e-39
19.259056 -11.142532 -2.3337624 6.4544144e-39
19.319475 -11.168205 -2.3410819 6.4544144e-39
18.982788 -11.028344 -2.3276689 6.7310012e-39
19.034557 -11.044691 -2.3477459 6.6388056e-39
19.151287 -11.059915 -2.3593559 6.2700231e-39
18.84622 -10.949003 -2.3788986 6.6388056e-39
18.940372 -10.948942 -2.3361025 6.4544144e-39
19.031614 -10.960631 -2.3474364 6.0856318e-39
18.648098 -10.867521 -2.3538654 6.8231969e-39
18.899433 -10.870856 -2.3992443 5.7168493e-39
18.922079 -10.883881 -2.3611598 6.0856318e-39
18.24824 -10.706901 -2.3692288 6.9153925e-39
18.373791 -10.75406 -2.3590224 6.9153925e-39
18.425861 -10.757954 -2.3258517 6.9153925e-39
18.752922 -10.759529 -2.3400269 5.9012406e-39
18.015291 -10.622202 -2.3909643 6.9153925e-39
18.118687 -10.64396 -2.3524134 6.8231969e-39
18.212893 -10.659887 -2.3120894 7.0075881e-39
18.558964 -10.608065 -2.3694291 5.6246537e-39
17.770617 -10.503573 -2.3584914 7.0075881e-39
17.854586 -10.540295 -2.3695729 7.0075881e-39
17.986629 -10.579353 -2.3352633 7.0075881e-39
18.491102 -10.582633 -2.3207312 5.8090449e-39
16.867155 -10.40753 -2.3723977 7.3763707e-39
17.05769 -10.451294 -2.3869152 7.5607619e-39
17.129324 -10.495206 -2.396939 7.6529575e-39
17.682903 -10.45173 -2.3213398 7.0997838e-39
17.744377 -10.462465 -2.3038108 7.0997838e-39
18.256121 -10.421814 -2.3175771 5.6246537e-39
16.565529 -10.317056 -2.3897417 7.0075881e-39
16.624685 -10.317924 -2.3623018 7.0997838e-39
16.749104 -10.334734 -2.3437343 7.4685663e-39
16.834122 -10.314334 -2.3313451 7.5607619e-39
16.905357 -10.309203 -2.3655992 7.5607619e-39
17.494856 -10.365821 -2.3218927 7.284175e-39
17.521044 -10.381336 -2.3632884 7.0997838e-39
18.260321 -10.397867 -2.3444538 5.6246537e-39
16.384701 -10.228073 -2.3872929 7.0075881e-39
16.565195 -10.245154 -2.3179994 7.1919794e-39
16.766483 -10.272871 -2.3219776 7.5607619e-39
