# .PCD v0.7 - Point Cloud Data file format
VERSION 0.7
FIELDS x y z rgb
SIZE 4 4 4 4
TYPE F F F F
COUNT 1 1 1 1
WIDTH 1069
HEIGHT 1
VIEWPOINT 0 0 0 1 0 0 0
POINTS 1069
DATA ascii
3.0643315 -0.80918026 1.4224126 1.5769075e-38
3.1507876 -0.81296813 1.4439534 1.549285e-38
3.2460189 -0.81102252 1.4522927 1.512407e-38
3.3432996 -0.80687141 1.4738759 1.5308821e-38
3.4148154 -0.8036499 1.4927227 1.5308821e-38
2.9652834 -0.7852056 1.4162891 1.6044579e-38
3.0494602 -0.79048443 1.4594445 1.6136776e-38
3.1157346 -0.79539698 1.488961 1.6228973e-38
3.2769294 -0.79514158 1.4166726 1.3557466e-38
3.3554833 -0.78449601 1.4276522 1.3557826e-38
3.4518747 -0.77393734 1.448205 1.3834413e-38
3.5469744 -0.76358575 1.4534937 1.3926969e-38
3.649972 -0.76079273 1.4505368 1.4480143e-38
3.748631 -0.75660765 1.4502901 1.5033316e-38
3.8535676 -0.75073296 1.4480606 1.558649e-38
3.9526567 -0.74315649 1.447566 1.5955273e-38
4.0536942 -0.73819864 1.4466028 1.6324055e-38
4.1534038 -0.73882765 1.4461117 1.7061617e-38
4.2501378 -0.73712701 1.4484921 1.7613711e-38
4.3507872 -0.73099244 1.4495471 1.8166523e-38
4.4455266 -0.71927923 1.4365134 1.7889577e-38
4.5080175 -0.70416832 1.4075775 1.6967625e-38
4.4768114 -0.69558519 1.4784411 1.8535666e-38
4.5499005 -0.6756255 1.4482377 1.7613352e-38
4.6551433 -0.63428479 1.4448898 1.7429319e-38
4.7104263 -0.60604948 1.4559305 1.7890656e-38
4.6983004 -0.59107089 1.4030886 1.5216263e-38
4.7497902 -0.55647033 1.4439698 1.5677963e-38
4.8134556 -0.5320552 1.4846464 1.5677604e-38
4.776473 -0.45925382 1.4187679 1.5586129e-38
4.839047 -0.44836769 1.4688213 1.5493574e-38
4.9109473 -0.40173641 1.4913924 1.5401381e-38
4.7961383 -0.39926374 1.4046297 1.6599923e-38
4.8698001 -0.36606833 1.4220679 1.6323696e-38
4.9541969 -0.35521033 1.4574246 1.5862718e-38
5.0054126 -0.33885166 1.492398 1.5586133e-38
4.8796062 -0.27065578 1.4138266 1.6969069e-38
4.9357677 -0.24606855 1.4544196 1.6876873e-38
5.0092263 -0.20743063 1.4959427 1.6784676e-38
4.8850451 -0.14690396 1.410538 1.7614439e-38
4.9261689 -0.14952067 1.4484386 1.7245655e-38
4.7959862 -0.0048687151 1.4045852 1.8167613e-38
4.8708401 -0.043301288 1.4180175 1.8259809e-38
4.9420667 -0.063829891 1.4580258 1.8352003e-38
5.0212498 -0.092025019 1.4995333 1.816725e-38
4.7532763 0.064196065 1.4158015 2.0381016e-38
4.8489652 0.052392788 1.4487734 2.0104432e-38
4.9393315 0.044352293 1.4821854 1.9920042e-38
5.0019293 0.031002697 1.4937636 1.9920045e-38
4.7595792 0.14418246 1.4172766 2.1487351e-38
4.8574162 0.15140744 1.4472524 2.1395157e-38
4.9241261 0.15960053 1.4800137 2.1118574e-38
4.7550302 0.24891877 1.4200302 2.1488067e-38
4.8549738 0.25066656 1.4568813 2.1304037e-38
4.9262404 0.25451055 1.488223 2.1120008e-38
4.6942949 0.39479923 1.4018923 1.7710965e-38
4.7730155 0.36183795 1.4196655 1.9093525e-38
4.8398871 0.36043379 1.4575335 1.900133e-38
4.9269567 0.34088913 1.4912686 1.9462302e-38
4.7592554 0.41299328 1.4262263 1.725035e-38
4.8524008 0.42977676 1.4547362 1.6882288e-38
4.9516215 0.45525828 1.4807662 1.6606064e-38
2.7823713 -1.9656506 1.5092756 5.9926991e-39
2.8668013 -1.9730847 1.5326524 5.6239166e-39
2.9131403 -1.9333462 1.5450587 6.1774477e-39
2.8968153 -1.8174169 1.5675536 7.928443e-39
2.9104524 -1.8536844 1.5382042 8.0209974e-39
2.8892837 -1.7411029 1.5444748 9.2195378e-39
2.9051521 -1.7768303 1.5224408 9.1277023e-39
2.866873 -1.6522808 1.5304263 1.0048938e-38
2.8329077 -1.5543549 1.5228866 1.0878342e-38
2.781944 -1.45787 1.5093547 1.152407e-38
2.8036456 -1.4930718 1.5165322 1.1155646e-38
3.1849802 -0.80374831 1.509676 1.6229334e-38
3.2436304 -0.80296826 1.512125 1.5861273e-38
3.3396559 -0.8028174 1.5121514 1.5585048e-38
3.4285939 -0.80179346 1.5071362 1.5492854e-38
3.0876756 -0.77097076 1.5145429 1.6411918e-38
3.1534898 -0.77195847 1.5417098 1.6413003e-38
3.2510753 -0.78638613 1.5538119 1.6229694e-38
3.3528502 -0.78924149 1.5561572 1.5953469e-38
3.4529395 -0.78622538 1.5552067 1.5861634e-38
3.5484526 -0.77673811 1.5564308 1.5400657e-38
3.6467748 -0.76835233 1.5589085 1.4663453e-38
3.7519407 -0.76491451 1.5524385 1.392625e-38
3.8521039 -0.76227117 1.5493276 1.4203197e-38
3.9491129 -0.75162095 1.5501145 1.4572338e-38
4.0486326 -0.73752999 1.5503726 1.5033316e-38
4.1507306 -0.7271834 1.5516539 1.5402099e-38
4.2489052 -0.71446848 1.5470798 1.5771241e-38
4.3263807 -0.70403898 1.542361 1.6047828e-38
4.3663945 -0.69664824 1.55267 1.6047828e-38
4.4506111 -0.68484956 1.5483612 1.6508446e-38
4.5519972 -0.66312283 1.5481291 1.706162e-38
4.649816 -0.63165957 1.5475365 1.7706987e-38
4.7141161 -0.60742551 1.5519471 1.7798824e-38
4.7601037 -0.59087408 1.5462433 1.7798822e-38
4.8516622 -0.5531708 1.5463623 1.724529e-38
4.9240952 -0.52232987 1.5772843 1.7521877e-38
4.8758845 -0.46471095 1.5175189 1.5401734e-38
4.9456325 -0.44292414 1.5595598 1.7153451e-38
5.0042701 -0.40215114 1.5955352 1.6877226e-38
4.9746614 -0.38908377 1.5352548 1.5586129e-38
5.0349088 -0.34400284 1.5509554 1.6323694e-38
4.9892445 -0.25913757 1.508688 1.6508088e-38
5.054513 -0.26632816 1.5415665 1.6600282e-38
5.1428452 -0.24397178 1.5798271 1.7614434e-38
5.0461416 -0.15070932 1.5069671 1.7061263e-38
5.1706266 -0.16960885 1.5638762 1.7338207e-38
5.2252059 -0.14431091 1.5859131 1.8167966e-38
5.0572147 -0.057358332 1.5191807 1.8905173e-38
5.1518388 -0.065222554 1.55978 1.9458705e-38
5.2412739 -0.03553091 1.5811934 1.9643098e-38
5.3037844 -0.016860474 1.5992119 2.0011879e-38
4.9657035 0.075050496 1.5122523 1.9827492e-38
5.0573077 0.058761463 1.5386082 1.9735296e-38
5.1414351 0.051645491 1.5669576 1.9735298e-38
5.247921 0.021150813 1.584253 2.0196272e-38
4.9937801 0.14985225 1.5129428 2.0565407e-38
5.0456886 0.1513789 1.5297153 2.0473213e-38
5.1654596 0.15121612 1.572983 2.0196628e-38
5.2177668 0.19794497 1.595858 2.065796e-38
4.9602485 0.25675663 1.5274979 2.0935619e-38
5.0533409 0.2412639 1.5739971 2.0659035e-38
5.1429305 0.20499726 1.580397 2.0473929e-38
4.9692645 0.33384004 1.5192227 1.9554496e-38
5.0435085 0.34516945 1.5561049 1.9093525e-38
5.1527495 0.36543965 1.5919 1.8355966e-38
4.9542174 0.41668671 1.5066742 1.743438e-38
5.0542154 0.44365528 1.5325761 1.7158514e-38
5.1426029 0.44371545 1.5703565 1.6973764e-38
5.2389054 0.48216373 1.5815585 1.6422391e-38
5.2822084 0.50520742 1.5774653 1.6606787e-38
5.3081646 0.50768995 1.5928748 1.6607145e-38
3.2712815 -0.74934852 1.625136 1.6505557e-38
3.350821 -0.74823749 1.6492966 1.6598114e-38
3.4507532 -0.74662668 1.6504061 1.6321892e-38
3.5446873 -0.73817134 1.6444249 1.6414087e-38
3.6475887 -0.73499686 1.6495855 1.6230057e-38
3.7508254 -0.73921633 1.6557673 1.5953831e-38
3.8485079 -0.74386692 1.6573625 1.5216267e-38
3.9471598 -0.74606544 1.6568911 1.4295032e-38
4.0469513 -0.74658859 1.6524858 1.3834414e-38
4.149147 -0.73701787 1.6512411 1.4203197e-38
4.2502851 -0.72173733 1.6501498 1.4572338e-38
4.3435402 -0.7064876 1.654407 1.475709e-38
3.2774301 -0.6893543 1.6738256 1.6136776e-38
3.3306873 -0.68928492 1.6935872 1.6137136e-38
4.3845239 -0.6976018 1.6203796 1.5310263e-38
4.4524565 -0.6877678 1.6504225 1.5217709e-38
4.553071 -0.66595447 1.6483277 1.5494296e-38
4.6474729 -0.63956904 1.6510193 1.5770883e-38
4.7356071 -0.61269373 1.6532446 1.5955274e-38
4.7802968 -0.59293419 1.6385385 1.6323698e-38
4.8528919 -0.57341421 1.6474309 1.6323338e-38
4.9484868 -0.53181475 1.6507292 1.6415891e-38
5.0083237 -0.50672668 1.6845682 1.5678328e-38
4.988596 -0.47010744 1.6128733 2.0103712e-38
5.0408645 -0.44802198 1.6593893 1.7429682e-38
5.1005087 -0.40988502 1.6998024 1.5863437e-38
5.0671072 -0.37176478 1.6366764 1.6876507e-38
5.1365137 -0.33062911 1.659379 1.6047108e-38
5.171248 -0.25735366 1.6306483 1.7337848e-38
5.223763 -0.23368469 1.6723872 1.6600643e-38
5.19486 -0.19263066 1.6038408 1.8720781e-38
5.255825 -0.15165868 1.642886 1.8075775e-38
5.3131032 -0.12546417 1.6873599 1.7522963e-38
5.277885 -0.078130037 1.620613 1.9366511e-38
5.3359857 -0.045656398 1.6582831 1.8537116e-38
5.196002 0.092168964 1.607944 1.9366519e-38
5.2602868 0.064680263 1.6257896 1.9274325e-38
5.3545771 0.036639262 1.6633749 1.8997738e-38
5.2785668 0.14554062 1.6192019 1.9920045e-38
5.322978 0.15408905 1.6657655 1.9643819e-38
5.0905008 0.24452405 1.600997 2.1213281e-38
5.1585922 0.24041618 1.6181848 2.0659395e-38
5.2681527 0.23272079 1.6633348 2.0474647e-38
5.3049164 0.23884091 1.6854812 2.0659397e-38
5.1634822 0.34000766 1.6114898 1.9554499e-38
5.2593017 0.33286414 1.6519161 1.9461944e-38
5.3365984 0.34780386 1.6807812 1.9093524e-38
5.4144192 0.38506141 1.6898565 1.7802436e-38
5.240653 0.43195593 1.6141974 1.7341825e-38
5.3556914 0.43985423 1.6534759 1.724999e-38
5.4436007 0.45786694 1.6806263 1.6789372e-38
5.3668547 0.50944614 1.6220862 1.6606785e-38
5.4908214 0.52516252 1.6556064 1.6422754e-38
5.54775 0.53325874 1.6701089 1.63302e-38
5.6007509 0.54375386 1.6564342 1.5132018e-38
5.5961733 0.61596996 1.6470068 6.4696086e-39
5.6013432 0.60037726 1.6404475 6.1919427e-39
5.701952 0.61938697 1.6781385 6.2844985e-39
3.3867719 -0.70457351 1.7027763 1.6597754e-38
3.4498689 -0.71109557 1.7094525 1.6506281e-38
3.5482719 -0.70474303 1.7170738 1.6506284e-38
3.6513419 -0.70758784 1.7099339 1.65992e-38
3.7453418 -0.7064926 1.7108809 1.6414807e-38
3.8487229 -0.70625407 1.7092451 1.6138222e-38
3.9510326 -0.70893395 1.7101299 1.5677604e-38
4.0520234 -0.72012264 1.716291 1.4664171e-38
4.153831 -0.72650939 1.7304884 1.3649662e-38
4.253828 -0.72273004 1.743628 1.365002e-38
4.3478174 -0.71097493 1.7485673 1.3834413e-38
4.4152446 -0.70246041 1.7721573 1.383477e-38
3.36518 -0.67973566 1.7160517 1.6044583e-38
3.452585 -0.67924345 1.7546082 1.632153e-38
3.5542555 -0.6864621 1.7655393 1.6414086e-38
3.6525912 -0.68017071 1.760716 1.6507003e-38
3.7498791 -0.66643882 1.7586037 1.6691036e-38
3.8553014 -0.6667279 1.7553033 1.6507004e-38
3.9459488 -0.65487611 1.7596657 1.6414809e-38
4.0458846 -0.65838432 1.7614256 1.5954189e-38
4.1503696 -0.65429056 1.7759732 1.5493569e-38
4.2379723 -0.65275925 1.7894377 1.5585766e-38
4.3101721 -0.6883691 1.797065 1.5125146e-38
4.4602513 -0.69207126 1.7446264 1.4295751e-38
4.5518732 -0.67492115 1.7516768 1.4480143e-38
4.6493387 -0.65321231 1.7498376 1.4756729e-38
4.7506213 -0.62742877 1.7513279 1.4756731e-38
4.8156033 -0.60775149 1.7607965 1.4479785e-38
4.8629022 -0.58884573 1.7482941 1.521735e-38
4.9535766 -0.55630678 1.7495708 1.5309546e-38
5.025434 -0.51755655 1.7593102 1.521735e-38
5.0718713 -0.47308034 1.7446178 1.5310265e-38
5.120697 -0.42634889 1.7579829 1.5218069e-38
5.1603832 -0.3632789 1.7455391 1.54021e-38
5.2224503 -0.31716028 1.7634183 1.5493937e-38
5.2608109 -0.25904948 1.7395178 1.5863078e-38
5.3192611 -0.22612295 1.7791045 1.6047471e-38
5.2907624 -0.18430811 1.7114733 1.6969429e-38
5.3483572 -0.15301149 1.7480035 1.6969789e-38
5.4139194 -0.11938688 1.7860292 1.6969789e-38
5.3793068 -0.066290535 1.7182633 1.7707357e-38
5.4391737 -0.043709818 1.762229 1.7522605e-38
5.3880224 0.066288106 1.7163392 1.8628958e-38
5.4340405 0.043039765 1.76193 1.8075783e-38
5.3389039 0.15398037 1.7471062 1.927468e-38
5.4110394 0.10946845 1.7798786 1.8352369e-38
5.2878699 0.24700779 1.7535899 2.0198064e-38
5.3057456 0.28102103 1.7075988 2.0382811e-38
5.2945452 0.30833906 1.7742794 1.9185005e-38
5.3375363 0.33305213 1.7438447 1.9000972e-38
5.4492354 0.38196462 1.7495444 1.7987186e-38
5.5074902 0.39962691 1.7837901 1.8448169e-38
5.481801 0.41754198 1.7102275 1.7986832e-38
5.5503492 0.43005657 1.7575057 1.798719e-38
5.6406636 0.46438861 1.7754354 1.6880848e-38
5.7232847 0.49373782 1.7917547 1.6513148e-38
5.5967426 0.50299364 1.7117682 1.605325e-38
5.6672497 0.52765083 1.7333925 1.6145807e-38
5.7595663 0.52804172 1.7719516 1.5961056e-38
5.8504114 0.56632072 1.7707796 1.504126e-38
5.9319382 0.58446521 1.7971723 1.3473939e-38
5.7981076 0.63819677 1.7148027 6.2855775e-39
5.8393006 0.63708419 1.7241797 6.2848572e-39
5.9824667 0.64553642 1.7714829 6.2852146e-39
6.0569019 0.65786374 1.7956905 6.4696058e-39
6.0285773 0.74619627 1.7916619 7.0242258e-39
4.3771534 -0.70115799 1.801802 1.3004648e-38
3.4935136 -0.66378134 1.8043282 1.6781788e-38
3.5527282 -0.64697278 1.8285999 1.6781789e-38
3.6504719 -0.64269871 1.8442515 1.6413727e-38
3.751225 -0.62689787 1.8508959 1.6229697e-38
3.8429937 -0.61556458 1.8281077 1.65992e-38
3.9426403 -0.60944051 1.809667 1.6783593e-38
4.0522294 -0.60877478 1.8107297 1.65992e-38
4.1492639 -0.6116662 1.8090137 1.5953829e-38
4.2636957 -0.6175276 1.8038485 1.5861992e-38
4.3499103 -0.65282011 1.8150607 1.4940754e-38
4.447228 -0.66630709 1.8305879 1.4018438e-38
4.5498328 -0.66487211 1.8464553 1.3926603e-38
4.6477594 -0.6584568 1.8525709 1.3742215e-38
4.7528095 -0.63335425 1.852836 1.4018804e-38
4.8218908 -0.61008459 1.8504109 1.411136e-38
3.8595662 -0.58758444 1.8656999 1.6322254e-38
3.9503078 -0.57480657 1.8597167 1.6691396e-38
4.0500832 -0.57311398 1.8559108 1.6875427e-38
4.1526861 -0.5724293 1.8515087 1.6507004e-38
4.2480488 -0.56603789 1.8469205 1.6230416e-38
4.3541627 -0.54312778 1.8610986 1.6230418e-38
4.4390402 -0.53601938 1.8625886 1.6046025e-38
4.5468831 -0.54229999 1.8829604 1.5861632e-38
4.6136441 -0.55046207 1.8969696 1.5585405e-38
4.8720555 -0.59163439 1.8492961 1.4387947e-38
4.9535761 -0.56235731 1.8493196 1.4387229e-38
5.0322351 -0.52028549 1.8501273 1.4110643e-38
4.4521089 -0.49550205 1.8925925 1.6414809e-38
4.5477066 -0.4988482 1.8982455 1.6230416e-38
5.0790138 -0.4795714 1.8532392 1.4203198e-38
5.1305065 -0.43097046 1.8500446 1.4387948e-38
5.1796684 -0.38226432 1.851328 1.4387948e-38
5.2375917 -0.33166239 1.8559661 1.4571979e-38
5.2860956 -0.28660208 1.8639843 1.4479784e-38
5.3406553 -0.24420905 1.8559422 1.5125155e-38
5.4032259 -0.20036095 1.8669434 1.6046752e-38
5.3876634 -0.18718854 1.831416 1.6139668e-38
5.4485631 -0.14635679 1.8562943 1.6416255e-38
5.5052414 -0.10354171 1.8889588 1.6416255e-38
5.4863176 -0.057761483 1.8192936 1.6970148e-38
5.5209203 -0.046123736 1.8692025 1.6693202e-38
5.4802866 0.065444849 1.8345565 1.7707358e-38
5.5202193 0.03909076 1.8711817 1.7062709e-38
5.34128 0.16581452 1.8478868 1.8721869e-38
5.4338198 0.11811724 1.855047 1.7984665e-38
5.2746134 0.24929914 1.848303 1.8999893e-38
5.2888794 0.31466445 1.8445443 1.7709523e-38
5.3475065 0.34458742 1.8507854 1.7341101e-38
5.456471 0.38021335 1.8498832 1.7710245e-38
5.5516152 0.40901428 1.8467157 1.7341824e-38
5.647481 0.4424254 1.8492318 1.641987e-38
5.7437859 0.47909138 1.8567536 1.6143645e-38
5.8173399 0.49764192 1.8925408 1.5683387e-38
5.778914 0.50603163 1.8208439 1.6236561e-38
5.8482738 0.52527243 1.8444155 1.5960696e-38
5.9506149 0.55915344 1.8562124 1.5131658e-38
6.0455179 0.5859893 1.8751689 1.2551262e-38
6.0617661 0.62056732 1.8102785 1.0064503e-38
6.1443119 0.63505554 1.8471814 8.2202354e-39
6.2396898 0.65532875 1.8763614 7.7596188e-39
6.0711474 0.73831916 1.8043135 6.7479976e-39
6.1296663 0.75427771 1.8217051 7.0242258e-39
6.2492275 0.75081611 1.8662707 6.9320301e-39
6.3236122 0.75984335 1.8884674 6.747999e-39
6.0605469 0.8769232 1.8448796 8.0369315e-39
6.1527047 0.8843224 1.8729167 7.945096e-39
6.2866359 0.89149785 1.8955641 7.7614307e-39
3.8746772 1.3949171 1.8656472 7.1999486e-39
3.8837736 1.4024038 1.8602121 7.3846944e-39
3.9501555 1.4206828 1.8881696 7.1095508e-39
4.078424 1.4903421 1.8857751 8.4035364e-39
4.1001158 1.4982688 1.8869375 8.5875662e-39
4.1200843 1.5055656 1.8901834 8.5875648e-39
3.6655748 -0.61142123 1.9253899 1.7703385e-38
3.73365 -0.60522807 1.9078923 1.6597761e-38
4.6654949 -0.63124067 1.9091052 1.3373069e-38
4.7533488 -0.62397736 1.9185096 1.2635505e-38
4.8178477 -0.60803294 1.9218335 1.3373075e-38
3.6879687 -0.59659433 1.9458053 1.7887778e-38
3.7495556 -0.57488161 1.9554505 1.7427523e-38
3.8504772 -0.54980719 1.9540285 1.6690677e-38
3.9457908 -0.53758633 1.9484419 1.641445e-38
4.0498886 -0.52951819 1.9523648 1.6414451e-38
4.1490054 -0.5249337 1.9492486 1.6782875e-38
4.2452016 -0.52113414 1.9407729 1.6967265e-38
4.3400426 -0.5143562 1.9279667 1.6691036e-38
4.4087348 -0.50058025 1.9112985 1.6691396e-38
4.5900207 -0.50129837 1.9005002 1.6138221e-38
4.6568837 -0.54683656 1.9101638 1.5585407e-38
4.7493401 -0.54760176 1.933678 1.4847843e-38
4.8588829 -0.57108057 1.943746 1.3373073e-38
4.9550467 -0.54951102 1.9495363 1.3649301e-38
5.0221491 -0.51838636 1.9423583 1.3741138e-38
3.8819983 -0.4920333 1.9937547 1.7889223e-38
3.9196875 -0.49499908 1.9942665 1.7704832e-38
4.1704688 -0.4949936 1.9944731 1.6322256e-38
4.2612047 -0.48518613 1.9853543 1.7059461e-38
4.3519502 -0.47361273 1.9676347 1.6783233e-38
4.4556355 -0.46319973 1.9495761 1.6875787e-38
4.5507045 -0.4418405 1.9463961 1.65992e-38
4.6395106 -0.4384478 1.9322737 1.6322613e-38
4.7468309 -0.4415547 1.9434811 1.5861635e-38
4.850873 -0.4437685 1.966482 1.5216626e-38
4.9547219 -0.45163202 1.9904094 1.4571614e-38
5.0622425 -0.469098 1.9588029 1.3557106e-38
5.1167374 -0.42240116 1.9459814 1.346527e-38
4.5809045 -0.39389235 1.9925289 1.6875787e-38
4.6549344 -0.38123015 1.9775999 1.6691397e-38
4.7499499 -0.36263248 1.9768821 1.5954551e-38
4.8454566 -0.34527078 1.9826261 1.577016e-38
4.9396019 -0.35802522 1.9911239 1.5493573e-38
5.0142488 -0.38849378 1.9989849 1.4663812e-38
5.1675782 -0.35891771 1.9547772 1.3096488e-38
5.2122283 -0.31812406 1.920441 1.3281239e-38
4.8602886 -0.29942775 1.9983813 1.6046747e-38
5.1976066 -0.2952137 1.9921055 1.3188683e-38
5.2459316 -0.25284144 1.9520944 1.3741859e-38
5.32061 -0.21866742 1.9123862 1.4571621e-38
5.2770352 -0.18447185 1.9769125 1.4387587e-38
5.356678 -0.1603909 1.955988 1.4848568e-38
5.4497452 -0.13373531 1.9334106 1.5586493e-38
5.5044384 -0.10352668 1.9151477 1.6140028e-38
5.3981781 -0.098933026 1.9936979 1.5217709e-38
5.4693141 -0.062154066 1.977897 1.5586856e-38
5.5215135 -0.042481672 1.9334621 1.6140388e-38
5.4858446 0.063043095 1.9750926 1.641734e-38
5.5243306 0.038267072 1.9395926 1.641734e-38
5.3460894 0.17028596 1.950448 1.7984308e-38
5.4413123 0.12232797 1.952119 1.7338939e-38
5.2871747 0.247403 1.9300009 1.7617325e-38
5.3086777 0.24663767 1.9774153 1.6971238e-38
5.2950692 0.30655083 1.9148779 1.6419863e-38
5.3418632 0.32988393 1.9499533 1.6235113e-38
5.4501595 0.37353712 1.9523935 1.5866334e-38
5.5138044 0.39213049 1.9528987 1.5220605e-38
5.5624557 0.40764046 1.9500626 1.5036573e-38
5.6489019 0.43459108 1.9501423 1.4852183e-38
5.7496233 0.46366873 1.9515924 1.4852545e-38
5.8396144 0.48797268 1.9572107 1.5037297e-38
5.8781309 0.50890869 1.925024 1.5591193e-38
5.9500227 0.52467775 1.952063 1.5315326e-38
6.0401497 0.55430633 1.9524596 1.5039461e-38
6.1400971 0.5840466 1.9560688 1.2458348e-38
6.2053013 0.59349501 1.9874177 1.1260523e-38
6.170794 0.61692172 1.9199691 9.4173338e-39
6.2573304 0.63900781 1.9526106 9.1414686e-39
6.33672 0.68182719 1.9537847 8.6815765e-39
6.3789721 0.72951263 1.9375932 7.5766751e-39
6.4339523 0.76368082 1.9688246 7.6692322e-39
6.5003929 0.79989815 1.9975282 8.4993516e-39
6.1911769 0.89582449 1.9025081 7.5781198e-39
6.2394967 0.89381462 1.908355 7.9454548e-39
6.3148947 0.89550525 1.9131949 7.6695924e-39
6.4700494 0.81749135 1.944224 7.1167857e-39
6.5467887 0.84975106 1.9771336 7.301177e-39
6.6018167 0.88857222 1.9905982 7.4855696e-39
6.2850876 0.91394663 1.9404333 7.6706714e-39
6.3563743 0.91209668 1.9563462 7.4862815e-39
6.4579825 0.91266745 1.9704518 7.3940901e-39
6.5161285 0.91464132 1.9835625 7.5777611e-39
6.6379156 0.91067088 1.9880741 7.8532704e-39
5.6576815 1.3491545 1.9956677 8.6859233e-39
3.9777648 1.4181368 1.9607834 6.7389648e-39
4.0506225 1.4411932 1.9531918 6.8329667e-39
4.1469789 1.4702004 1.9627652 7.2035541e-39
4.2231221 1.472881 1.9892193 7.2964742e-39
4.1639314 1.5100574 1.9173036 8.4957349e-39
4.2468476 1.5253767 1.9581901 8.4957377e-39
4.3376827 1.5690889 1.9701587 9.1407456e-39
4.4184275 1.592283 1.9919901 9.7861164e-39
4.3731756 1.6119213 1.9684368 9.6924774e-39
4.4434533 1.6338397 1.9881204 9.8772302e-39
4.5702372 1.7135683 1.9490077 8.7726861e-39
4.6548805 1.740803 1.9695222 8.7737679e-39
4.7439399 1.7680674 1.9817814 9.3269459e-39
4.8186913 1.7914402 1.9923897 9.7882842e-39
4.7965479 1.8011984 1.979093 9.788996e-39
4.8523479 1.8168991 1.9933593 9.8808343e-39
3.7689905 -0.55827999 2.0321367 1.724205e-38
3.8265052 -0.5162009 2.0356836 1.7059461e-38
3.9972265 -0.50575626 2.0010524 1.7059462e-38
4.0615878 -0.50690329 2.009764 1.6690681e-38
4.1098557 -0.50221944 2.0070295 1.6506288e-38
3.8477719 -0.45429075 2.0497024 1.6875071e-38
3.948349 -0.44037312 2.0344679 1.7520442e-38
4.0520787 -0.45193684 2.0380909 1.7796668e-38
4.1493859 -0.45613647 2.037358 1.6967267e-38
4.2472081 -0.44020537 2.0339413 1.6506287e-38
4.3494482 -0.42568827 2.0326347 1.6598843e-38
4.4464474 -0.41729787 2.0219412 1.6783591e-38
4.5122776 -0.40667221 2.0140226 1.6967983e-38
5.0492377 -0.43479767 2.003356 1.300321e-38
5.1032109 -0.40274 2.0025537 1.2542592e-38
3.8755786 -0.39374664 2.0938697 1.6967264e-38
3.9585412 -0.38592225 2.0763299 1.6967268e-38
4.0562906 -0.35351509 2.0721414 1.7336049e-38
4.1459246 -0.35078666 2.0675395 1.7705192e-38
4.250103 -0.35005191 2.0780704 1.7520799e-38
4.3533993 -0.35762095 2.0842311 1.6599203e-38
4.4499297 -0.36714196 2.0738297 1.6230422e-38
4.5540137 -0.36659506 2.054981 1.687579e-38
4.6474481 -0.33701199 2.0504575 1.687615e-38
4.7387676 -0.31748575 2.0249829 1.6599922e-38
4.8188081 -0.30922824 2.0044842 1.577016e-38
4.9733939 -0.32364506 2.0039675 1.5493573e-38
5.0488243 -0.3485958 2.0131099 1.4018443e-38
5.1447897 -0.33904332 2.0184772 1.2635148e-38
4.0989094 -0.29982817 2.0963058 1.7152018e-38
4.1531544 -0.27833715 2.0858331 1.7244212e-38
4.2498345 -0.27905884 2.0934145 1.7797745e-38
4.3241343 -0.28622141 2.0956917 1.770519e-38
4.6804724 -0.29386497 2.0889208 1.6783954e-38
4.7601924 -0.28518203 2.0687001 1.6692117e-38
4.8507843 -0.26165068 2.047981 1.6322973e-38
4.9379587 -0.23871829 2.0449314 1.6046747e-38
5.0484881 -0.24549235 2.0510683 1.4663812e-38
5.1687117 -0.25471917 2.0517914 1.3188683e-38
5.2140908 -0.23103127 2.0242667 1.3649663e-38
4.9694462 -0.18998896 2.0862391 1.6138942e-38
5.0480232 -0.17594518 2.0865328 1.5125148e-38
5.1588998 -0.16415067 2.0851915 1.4018443e-38
5.2513022 -0.14966826 2.0549526 1.4387588e-38
5.3398519 -0.12505624 2.0228148 1.5033318e-38
5.281467 -0.063910045 2.0872962 1.4664176e-38
5.3518353 -0.054212969 2.0549488 1.5033319e-38
5.4321284 -0.036150441 2.021358 1.5310628e-38
5.3681474 0.040822458 2.08271 1.5309907e-38
5.4369965 0.051311098 2.0357437 1.567977e-38
5.3672128 0.15546918 2.056073 1.6785766e-38
5.4175997 0.11710709 2.0312335 1.6417341e-38
3.9706311 0.21478727 2.0988641 2.1669224e-38
5.3472414 0.24727122 2.04848 1.5404272e-38
5.3662333 0.31812724 2.0342991 1.503585e-38
5.4499936 0.35470998 2.0515692 1.3929864e-38
5.5225487 0.38769332 2.0570097 1.3008268e-38
5.5726414 0.41019008 2.0556223 1.2916434e-38
5.6489887 0.4401809 2.056664 1.2824958e-38
5.7459321 0.47193441 2.0568786 1.2548733e-38
5.8417339 0.49053955 2.0421102 1.3194104e-38
5.7963171 0.50420564 2.0989313 8.3088171e-39
5.8582802 0.51487851 2.0818517 9.1385777e-39
5.9548516 0.53173852 2.0622828 1.0614069e-38
6.0482874 0.56255031 2.058713 9.4162506e-39
6.1437621 0.57840139 2.0452986 9.4166122e-39
6.2246747 0.59161073 2.0332749 9.9694272e-39
6.0948782 0.60051948 2.0839446 7.020609e-39
6.1620283 0.62074029 2.0732553 6.8372981e-39
6.2499461 0.64751095 2.0599651 7.3904761e-39
6.3412323 0.66943926 2.0425355 8.2205955e-39
6.4072456 0.69600105 2.0382318 9.142912e-39
6.2907729 0.71057957 2.0919337 7.2075268e-39
6.3537412 0.72720402 2.0836885 6.8391086e-39
6.447186 0.7479369 2.0491939 8.7744938e-39
6.5060487 0.79120797 2.0602777 9.0518023e-39
6.5559392 0.82673794 2.0458169 9.0521681e-39
6.6391492 0.87515098 2.0610502 8.8684985e-39
6.4716034 0.93638629 2.0166903 7.4862815e-39
6.5623665 0.93956679 2.0529764 7.3018944e-39
6.6597981 0.92906225 2.0553758 7.5781226e-39
6.7105732 0.91773403 2.0790625 8.2238493e-39
6.5298848 1.0076288 2.0945108 8.0409042e-39
5.7689362 1.2952353 2.016897 8.3167793e-39
5.8472872 1.2982012 2.0397766 8.2249438e-39
5.6703434 1.3567158 2.0151467 8.6855632e-39
5.7434731 1.3580234 2.0573387 8.5930074e-39
5.8470578 1.3283913 2.0698905 8.3167821e-39
5.9306502 1.3346089 2.0859478 8.3167807e-39
6.0376658 1.3178385 2.0992239 8.2249438e-39
3.9767468 1.4130274 2.0080113 6.8297129e-39
4.0620852 1.4303453 2.0326645 6.6464077e-39
4.146172 1.4401747 2.0457697 6.555298e-39
4.2529035 1.4586322 2.0403376 6.8333311e-39
4.3458009 1.4665221 2.0637798 7.1102809e-39
4.4350405 1.4751842 2.0799167 7.848569e-39
4.5069056 1.4941194 2.0936544 9.2307846e-39
5.8353114 1.4463774 2.0919852 8.8699516e-39
4.359663 1.5338386 2.0232456 8.6790527e-39
4.4564304 1.5505513 2.0591979 9.231865e-39
4.5169983 1.5507213 2.0939887 9.2318664e-39
4.478796 1.6164515 2.0143726 9.7861178e-39
4.5545182 1.6548576 2.0343792 1.0061984e-38
4.640347 1.6803356 2.0571368 1.0155262e-38
4.7108727 1.6942599 2.0796742 1.0800272e-38
4.596272 1.7060982 2.0091825 1.006234e-38
4.6679759 1.7203112 2.032958 9.878312e-39
4.7521381 1.7402056 2.0507371 9.6028111e-39
4.8466277 1.7728578 2.0538392 9.1425588e-39
4.9267173 1.7910171 2.0688891 9.2343999e-39
4.8892307 1.8183649 2.0067534 9.9730356e-39
4.9580617 1.8242484 2.0399442 9.9723209e-39
5.0442162 1.8460906 2.0727587 9.8801267e-39
5.1275153 1.8810989 2.0848143 9.9719636e-39
5.1963367 1.9063475 2.0990696 9.7875751e-39
5.2149591 1.9131794 2.0990686 9.1429288e-39
3.8790479 -0.37979019 2.1078951 1.7151296e-38
3.9585886 -0.3488102 2.1317873 1.669068e-38
4.039762 -0.32354337 2.1301529 1.7151658e-38
4.3896456 -0.31001526 2.1009228 1.7059822e-38
4.4568152 -0.31672683 2.1069899 1.6137866e-38
4.5513291 -0.31355786 2.1096959 1.5954554e-38
4.6121268 -0.30991936 2.1034348 1.6784314e-38
4.0640121 -0.28000829 2.1678712 1.7152018e-38
4.1479421 -0.25133935 2.1521056 1.7152378e-38
4.2408085 -0.22294702 2.1386464 1.7244215e-38
4.3545957 -0.24110578 2.1246216 1.7612996e-38
4.4518886 -0.24721178 2.1307611 1.7060181e-38
4.5499825 -0.25134221 2.133492 1.6415532e-38
4.649703 -0.25474659 2.1341445 1.6138944e-38
4.7491612 -0.24363397 2.1438596 1.6323335e-38
4.8470421 -0.22477791 2.1384339 1.6691759e-38
4.9092569 -0.20531233 2.1095665 1.6322975e-38
4.2556286 -0.16128258 2.1764932 1.7244937e-38
4.349896 -0.15189554 2.1754189 1.7152381e-38
4.4460797 -0.16079456 2.1850173 1.6875791e-38
4.5536294 -0.17414552 2.1872878 1.7521159e-38
4.6425362 -0.16618682 2.1850786 1.7429684e-38
4.7439508 -0.1774592 2.1905825 1.6507728e-38
4.8611202 -0.18923353 2.1835535 1.6138585e-38
4.9560866 -0.16987351 2.1520264 1.6231139e-38
5.0440993 -0.12744905 2.1435935 1.5862358e-38
5.1350179 -0.115918 2.1129904 1.4202834e-38
5.2143517 -0.10308657 2.1025805 1.4387947e-38
4.2952247 -0.095757931 2.1936073 1.7244941e-38
4.3454666 -0.042628858 2.193296 1.6968713e-38
4.4462223 -0.016631665 2.1946325 1.6968711e-38
5.0806808 -0.08768326 2.1823459 1.6047109e-38
5.1600924 -0.053035662 2.1581259 1.4571978e-38
5.2362628 -0.042677477 2.1158252 1.438759e-38
3.9852095 0.087940127 2.1692777 1.678469e-38
4.0515919 0.06959457 2.178035 1.6046763e-38
4.1558247 0.069528967 2.1744459 1.6876523e-38
4.241909 0.058005746 2.1777134 1.7060911e-38
4.3577719 0.056585524 2.1941266 1.7337497e-38
4.4349017 0.048781846 2.1939862 1.7245658e-38
5.1927991 0.0059666061 2.188277 1.411064e-38
5.2528381 0.041280005 2.1566508 1.4664175e-38
5.3319716 0.065770738 2.1213176 1.5309547e-38
3.9764075 0.16173181 2.1424527 1.7429336e-38
4.0412302 0.14599767 2.1321199 1.6599576e-38
4.1492996 0.14068925 2.1457512 1.7336781e-38
4.2547474 0.15460819 2.159318 1.7706282e-38
4.3436437 0.15040424 2.1651504 1.7614086e-38
4.4493189 0.1489086 2.1748545 1.7521888e-38
4.5518465 0.15625682 2.1808503 1.7245658e-38
4.647295 0.15288609 2.1875699 1.7061267e-38
4.7523313 0.15485384 2.1948504 1.6692483e-38
4.8456426 0.17538373 2.1940382 1.6969071e-38
4.9107819 0.17212585 2.1962571 1.7061266e-38
5.2897811 0.10783157 2.1857779 1.4848929e-38
5.3572083 0.145592 2.1478469 1.5494662e-38
5.4053583 0.19726345 2.1835034 1.3742949e-38
3.9586966 0.21604514 2.1241016 1.9641297e-38
4.0495863 0.23642902 2.1353536 2.0377775e-38
4.1519308 0.25810543 2.1506732 2.0193029e-38
4.2443833 0.25330147 2.1422389 1.8719355e-38
4.3494596 0.25077426 2.1472461 1.8258735e-38
4.4482307 0.24676345 2.1537895 1.770592e-38
4.5509257 0.24678962 2.1694083 1.7337855e-38
4.6520944 0.24622293 2.189857 1.6969073e-38
4.7235522 0.24003957 2.1957364 1.6876874e-38
5.3868885 0.23390272 2.1214583 1.4666344e-38
5.4241409 0.25620246 2.1655335 1.3559276e-38
4.1891403 0.30648795 2.1817319 2.3049631e-38
4.253613 0.32821187 2.1791785 2.1390845e-38
4.347754 0.34335938 2.1797609 2.0101196e-38
4.4473739 0.33939528 2.1800163 1.8903739e-38
4.5468602 0.33035305 2.1844499 1.7614082e-38
4.6295533 0.32254952 2.1941957 1.724566e-38
5.4638152 0.32106009 2.14995 1.328341e-38
5.5439019 0.37070608 2.1590991 1.1532415e-38
5.5839114 0.41133595 2.1296048 1.1441302e-38
5.6462584 0.44594148 2.1555488 1.0150926e-38
5.7227526 0.48914376 2.1494083 6.8326066e-39
5.7583737 0.51860899 2.1572492 6.0035676e-39
5.8471932 0.54577744 2.1497374 6.2808762e-39
5.950254 0.57167369 2.1490502 6.7425774e-39
6.0313244 0.59197253 2.137249 6.744378e-39
6.0717688 0.61264366 2.1654308 6.9287707e-39
6.1552582 0.64800268 2.154892 7.0216908e-39
6.2229085 0.68417513 2.1371806 6.6536328e-39
6.2647638 0.71737552 2.1568789 6.9309399e-39
6.3513541 0.75630468 2.1490912 7.2078897e-39
6.4326253 0.78712678 2.1351829 7.2089729e-39
6.4706836 0.81092328 2.1603875 7.2089729e-39
6.5496573 0.83670312 2.1430223 7.6703126e-39
6.6525598 0.87680018 2.149261 8.2238479e-39
6.705359 0.8928349 2.1282275 9.5142266e-39
6.662384 0.94684589 2.144839 7.7628754e-39
6.7153797 0.93293369 2.153194 8.1316565e-39
6.5700717 1.0391935 2.1390429 8.1327411e-39
6.6415772 1.0380665 2.164782 8.1327397e-39
6.7225933 1.0228099 2.1821892 8.3167708e-39
6.5761466 1.1064792 2.155225 7.7643201e-39
6.6154351 1.1194581 2.1832001 7.7639614e-39
6.1534271 1.298719 2.1128409 8.4100539e-39
6.3969536 1.28859 2.1564658 8.1334642e-39
6.4452343 1.2737281 2.1765654 7.5802932e-39
6.65588 1.2031188 2.1989431 7.76396e-39
4.6401787 1.3794463 2.1870875 9.1392938e-39
4.7601542 1.3825036 2.1933341 7.8485592e-39
4.8145018 1.3773235 2.1978428 8.4017372e-39
5.7706594 1.3701514 2.1098559 8.3160632e-39
5.8492866 1.3717556 2.1344154 8.3164219e-39
5.9581094 1.3483624 2.1346066 8.4082574e-39
6.0455818 1.34692 2.1717317 8.1320293e-39
6.1623321 1.3222333 2.1530833 8.2249438e-39
6.2213049 1.3216121 2.1708758 8.2245836e-39
6.36834 1.3187875 2.1774144 8.3178583e-39
6.4462461 1.3093735 2.1854839 8.22602e-39
4.1581659 1.4523566 2.1432128 5.9999536e-39
4.2477779 1.45781 2.1508527 6.2772692e-39
4.350184 1.4650005 2.1500046 6.4631038e-39
4.4490385 1.4669185 2.149184 6.556384e-39
4.5556722 1.4744902 2.1526036 7.4794221e-39
4.6326604 1.4424741 2.1705792 7.9403961e-39
4.7463918 1.4322407 2.1860354 8.7701596e-39
4.8171792 1.4211534 2.1974807 9.3233361e-39
5.87359 1.4590507 2.1280429 8.7773987e-39
5.9137125 1.4531056 2.16414 8.7773987e-39
4.5700917 1.5435321 2.1152465 9.6921229e-39
4.6667752 1.5552305 2.1544554 1.0060545e-38
4.7519765 1.5487955 2.1882029 1.0060545e-38
5.8679209 1.5008895 2.1163945 9.2383768e-39
5.9342079 1.5144042 2.1574674 8.9614312e-39
6.0266185 1.5458354 2.1866665 9.0539856e-39
4.5942421 1.6158671 2.1110287 9.9701489e-39
4.6578407 1.6388992 2.1274748 1.0246734e-38
4.7486439 1.6610261 2.1625569 1.0615517e-38
4.8097253 1.6812482 2.1926944 1.0707714e-38
4.7911396 1.7093085 2.1289344 1.0616239e-38
4.8587365 1.7353213 2.141129 1.061624e-38
4.9491282 1.7767432 2.1344512 1.0063792e-38
5.0197592 1.7944915 2.1689672 1.0709157e-38
4.9870529 1.8007903 2.1008646 9.1422029e-39
5.0641022 1.8170406 2.1424406 9.6953767e-39
5.1545205 1.8534861 2.1504588 9.8794092e-39
5.2387848 1.8833952 2.1521873 9.9719664e-39
5.301228 1.8951172 2.1835041 9.9719692e-39
5.4769683 1.8934036 2.1465814 9.3287578e-39
5.2650352 1.913581 2.1261084 9.6957396e-39
5.3407512 1.9213068 2.152745 9.4195143e-39
5.4480081 1.9431549 2.1720524 9.1440078e-39
5.5601377 1.9240731 2.185293 9.513149e-39
5.6024547 1.9179358 2.1984622 9.973767e-39
4.0799561 -0.23940665 2.215503 1.6876511e-38
4.1331267 -0.21343008 2.2111909 1.696835e-38
4.0971446 -0.17360048 2.2343073 1.6692849e-38
4.1538405 -0.15326637 2.2301316 1.6784323e-38
4.231472 -0.13491572 2.2146976 1.7060908e-38
4.4596992 -0.11252131 2.2053752 1.6783597e-38
4.5552249 -0.12679684 2.2080131 1.7152737e-38
4.6470094 -0.11981103 2.2108507 1.7614075e-38
4.7499995 -0.12559164 2.2093039 1.7337488e-38
4.854022 -0.14303979 2.2209983 1.6138945e-38
4.9541593 -0.13457981 2.2276006 1.5677607e-38
5.0186343 -0.11463144 2.2167659 1.5861999e-38
4.0910649 -0.004153104 2.2309916 1.6137874e-38
4.1540575 -0.052238494 2.2389598 1.6876521e-38
4.2530169 -0.050839756 2.2284675 1.6784326e-38
4.332262 -0.047362946 2.2129409 1.7153104e-38
4.4552774 -0.06109101 2.2137871 1.696835e-38
4.5553198 -0.054865725 2.2144434 1.6968708e-38
4.6503353 -0.055048559 2.2151074 1.7060903e-38
4.7439165 -0.051159073 2.2176213 1.7613715e-38
4.8522205 -0.046664931 2.2352254 1.7337129e-38
4.9572053 -0.055361107 2.2531974 1.6507728e-38
5.0541844 -0.057969913 2.2439873 1.5493215e-38
5.1304593 -0.025878482 2.2284367 1.5769805e-38
4.0688314 0.023514146 2.2093999 1.5862372e-38
4.1549497 0.020700626 2.2202594 1.6692133e-38
4.2416039 0.014646944 2.2190578 1.687652e-38
4.3582749 0.032125868 2.2051079 1.724566e-38
4.4780765 0.057905436 2.2036386 1.7153464e-38
4.5534749 0.049116522 2.2155035 1.6969071e-38
4.6544132 0.051663682 2.2232685 1.6692482e-38
4.739563 0.053819422 2.2183752 1.6876514e-38
4.8548913 0.045162044 2.2408535 1.7614076e-38
4.9487724 0.055026375 2.2513304 1.7337491e-38
5.0521989 0.046897657 2.2718601 1.6415535e-38
5.1597362 0.0361345 2.2597325 1.5125155e-38
5.227747 0.070075497 2.2394316 1.4387229e-38
4.5750108 0.1061027 2.2066545 1.7061267e-38
4.6464272 0.10746613 2.2063727 1.696907e-38
4.7563772 0.14716361 2.2045135 1.6692483e-38
4.8593411 0.13689372 2.2095931 1.7153461e-38
4.9450417 0.14190897 2.2139986 1.696907e-38
5.0498624 0.14979403 2.2388282 1.6415898e-38
5.1517544 0.14578423 2.2707098 1.5954918e-38
5.2680945 0.12260228 2.2576947 1.4110645e-38
5.3470969 0.16993661 2.2462525 1.2913184e-38
4.0801487 0.25781429 2.2144229 2.1668867e-38
4.1559181 0.28508669 2.236583 2.2774483e-38
4.6853752 0.28995246 2.2049446 1.7060908e-38
4.7618022 0.25227925 2.206183 1.6784679e-38
4.850347 0.24709833 2.215709 1.6415898e-38
4.9503431 0.25252703 2.2214777 1.6324062e-38
5.0436478 0.25929967 2.2259057 1.6139669e-38
5.1486402 0.25193688 2.2527905 1.5126597e-38
5.2466469 0.24937074 2.2850044 1.4573423e-38
5.3875437 0.21210995 2.2641344 1.2268536e-38
5.4295282 0.25533804 2.2481666 1.1899754e-38
4.1955581 0.30645153 2.2395568 2.3142185e-38
4.2516017 0.34678164 2.2516823 2.3325854e-38
4.3241453 0.38910061 2.2345214 2.2865239e-38
4.4467416 0.38891369 2.2064152 1.9917167e-38
4.5526762 0.37892818 2.210088 1.8166897e-38
4.6579847 0.36322984 2.215656 1.7521888e-38
4.747448 0.355865 2.2194283 1.7061267e-38
4.847796 0.35017326 2.2290637 1.6600289e-38
4.9528241 0.3484031 2.2419999 1.6047475e-38
5.044589 0.34639755 2.2444589 1.5310632e-38
5.1479759 0.35437527 2.2611947 1.4665981e-38
5.2518167 0.3564859 2.2814736 1.3744025e-38
5.3404036 0.36690599 2.2956352 1.300646e-38
5.47158 0.31945255 2.2560358 1.1254384e-38
5.5396748 0.37089333 2.2460821 1.033351e-38
4.3603077 0.42948839 2.2523315 2.341769e-38
4.4418235 0.45787448 2.2463453 2.2496462e-38
4.5470161 0.44318426 2.2461903 1.9824972e-38
4.6494288 0.44842768 2.2618942 1.8443847e-38
4.7567935 0.4518739 2.2612879 1.7614805e-38
4.8452377 0.45185754 2.248857 1.6877599e-38
4.9465189 0.45372134 2.2531657 1.6140394e-38
5.0534015 0.45180544 2.264415 1.5311351e-38
5.1429095 0.45375827 2.2742019 1.4390116e-38
5.2518477 0.44871572 2.2896643 1.3559637e-38
5.3348513 0.43857431 2.2958488 1.3006103e-38
5.584003 0.4123117 2.2717555 8.2130159e-39
5.6510973 0.45590827 2.2468586 6.4623821e-39
5.7030587 0.49609333 2.20503 5.5407888e-39
4.4671144 0.51739568 2.2695501 2.341769e-38
4.5459332 0.55815572 2.2772892 2.3141465e-38
4.6334596 0.55637783 2.2899015 2.1668502e-38
4.7841191 0.50726312 2.2914205 1.7892114e-38
4.8481479 0.52301401 2.2829883 1.7154907e-38
4.9511008 0.53225261 2.2872365 1.6509181e-38
5.0533948 0.53238386 2.2888374 1.5588301e-38
5.1402173 0.54970086 2.2857084 1.4574869e-38
5.2351003 0.53314888 2.2923398 1.3561076e-38
5.30936 0.50014466 2.2979178 1.291427e-38
5.6947994 0.50359058 2.2963157 5.4478743e-39
5.7475324 0.53952408 2.2551091 5.7255416e-39
5.83178 0.58423674 2.238682 6.0035704e-39
5.9360576 0.59248853 2.2103667 6.6496615e-39
4.5795317 0.62140727 2.2850442 2.3325854e-38
4.6390066 0.63419718 2.2898083 2.3142182e-38
5.8602948 0.62280327 2.2701135 6.0957674e-39
5.9512906 0.64179611 2.2583303 6.2812391e-39
6.0506635 0.65399456 2.2481701 6.743299e-39
6.1416483 0.67660815 2.2337136 7.1131648e-39
6.2008104 0.69146794 2.2006757 7.2060849e-39
4.1683888 0.78650784 2.2656238 2.3050348e-38
4.24581 0.77785021 2.287745 2.2865239e-38
4.3055458 0.78138053 2.2982635 2.1574513e-38
6.0759072 0.70383614 2.2965794 6.3745179e-39
6.1611185 0.71311659 2.2813418 6.7447396e-39
6.2488594 0.72851413 2.2482319 7.2064436e-39
6.3486681 0.77017814 2.2466006 7.2997224e-39
6.4116488 0.79738808 2.2569809 7.3922796e-39
4.1540294 0.81808609 2.2550194 2.1761058e-38
4.252223 0.82606405 2.2876394 1.9731693e-38
6.4631739 0.81816751 2.2465055 7.3922824e-39
6.5469446 0.85190481 2.2537889 7.4851997e-39
6.6351848 0.88582021 2.246201 7.670314e-39
6.6874843 0.93184322 2.2527807 8.2234906e-39
6.7285361 0.97238648 2.2458425 8.2238521e-39
6.6621184 1.0785626 2.2398691 7.8557955e-39
6.7364473 1.041985 2.2590036 7.9479883e-39
4.8854384 1.1931971 2.2894568 7.9385912e-39
4.9187784 1.1898196 2.2920609 8.4910447e-39
6.6611066 1.1543509 2.2492301 7.7639614e-39
6.7293034 1.163895 2.2596085 7.7639614e-39
4.7928352 1.2901775 2.2761514 6.9258756e-39
4.8463931 1.2541386 2.2585089 7.6630833e-39
4.9399967 1.2518601 2.2564151 9.1349778e-39
5.0280294 1.2705015 2.2828963 1.0421036e-38
6.4895005 1.279776 2.2113853 7.3959034e-39
6.5442748 1.2761093 2.254427 7.7636055e-39
6.6614432 1.2297015 2.2470565 7.8561584e-39
6.7354589 1.2633046 2.2772717 7.7643229e-39
6.8230853 1.2727356 2.2984695 7.7646831e-39
4.5916052 1.3806615 2.2656202 9.2293188e-39
4.6323729 1.3615991 2.2440436 1.0612972e-38
4.7564697 1.3368343 2.2465682 7.6638008e-39
4.8432236 1.3348505 2.2181253 8.3091786e-39
4.9509149 1.347687 2.233681 9.7835968e-39
5.0489664 1.3564516 2.2603745 1.1071813e-38
5.1342349 1.3731705 2.2853971 1.236039e-38
5.9968348 1.386789 2.2061472 8.4082546e-39
6.0707889 1.3644651 2.2207575 8.0394749e-39
6.1478248 1.3697355 2.2470286 8.2238648e-39
6.2480545 1.3383993 2.2392466 7.9476366e-39
6.3521781 1.3331876 2.2555039 7.8554396e-39
6.4827366 1.3401647 2.2539575 8.1323866e-39
6.5605516 1.3313974 2.2514782 7.9487156e-39
6.6333404 1.3340964 2.2871802 7.7639656e-39
4.1541758 1.4576266 2.2400708 1.2726263e-38
4.2466865 1.4728696 2.2500615 8.9487691e-39
4.3584309 1.479642 2.242439 6.1843533e-39
4.4515061 1.4750872 2.2510624 6.0932423e-39
4.551703 1.4690065 2.2501731 6.5552994e-39
4.622642 1.4490225 2.2505944 7.4783319e-39
4.8561668 1.4496957 2.213141 9.783957e-39
4.9546862 1.4506748 2.2393446 1.0244937e-38
5.0576582 1.4411126 2.2682638 1.0981781e-38
5.1346116 1.4440749 2.2853906 1.2179964e-38
5.2039509 1.4211506 2.2973416 1.3559653e-38
5.9677 1.4523346 2.2143598 9.237295e-39
6.0490851 1.4592617 2.2508836 9.3294892e-39
6.1424108 1.4278202 2.2826061 9.4213219e-39
4.7909937 1.5364703 2.2048903 9.9679895e-39
4.8540292 1.5426208 2.2252285 1.0152381e-38
4.9630985 1.5428935 2.2630491 1.0613359e-38
5.0437155 1.5342579 2.2806938 1.0889949e-38
5.1149735 1.5370508 2.2949574 1.0982506e-38
5.9927411 1.5155249 2.2046411 8.8695957e-39
6.057795 1.5305308 2.2358553 8.9617899e-39
6.1463418 1.5607185 2.2687306 9.1458211e-39
6.2059002 1.5918112 2.2785909 8.9617899e-39
4.7872167 1.6250354 2.2031519 1.0614438e-38
4.8611355 1.6602223 2.2256994 1.1167972e-38
4.9364443 1.6427127 2.2603137 1.1074697e-38
5.0239882 1.6564412 2.295805 1.1720067e-38
6.2677341 1.6570618 2.2877173 9.237658e-39
4.9559722 1.7342513 2.2355132 1.1260888e-38
5.0443988 1.7661307 2.2609792 1.1537835e-38
5.103919 1.7877679 2.286314 1.144672e-38
6.0565305 1.7653577 2.2783444 1.1173038e-38
6.1433067 1.7452716 2.2800655 9.975216e-39
6.2396283 1.7240927 2.2817745 9.3302081e-39
5.0983958 1.8115746 2.2286773 1.1446359e-38
5.1554003 1.8258845 2.2572551 1.1631109e-38
5.243259 1.8570112 2.2684522 1.126269e-38
5.3211527 1.8885282 2.2536685 1.0155995e-38
5.3719797 1.9087818 2.2408891 9.8801295e-39
5.4400458 1.9301964 2.2491326 9.7875779e-39
5.5527864 1.9629104 2.2534783 9.8801351e-39
5.6536331 1.9666401 2.2532353 1.0064885e-38
5.7337608 1.9660108 2.280303 1.0709175e-38
5.8278217 1.969865 2.291081 1.2549841e-38
5.2778912 0.16367123 2.3056045 1.3834779e-38
5.3291259 0.18181494 2.3083661 1.1990509e-38
5.2831697 0.21569374 2.3033388 1.4573063e-38
5.3615479 0.24117279 2.3128769 1.2452925e-38
5.4165597 0.26701298 2.3107786 1.107035e-38
4.2729082 0.35943839 2.3161669 2.341805e-38
4.3109202 0.38972983 2.3296051 2.3509886e-38
5.3730788 0.33509353 2.3055441 1.2914263e-38
5.4498253 0.3443487 2.312186 1.1346579e-38
5.5233736 0.38001609 2.3122172 9.9636455e-39
4.3633947 0.43566981 2.3412147 2.3509886e-38
4.4170299 0.48315614 2.350502 2.3509886e-38
4.6905003 0.49598223 2.3007445 1.8167982e-38
4.7143579 0.49850494 2.3022399 1.8444566e-38
5.3760242 0.46608767 2.3060746 1.2453648e-38
5.4479976 0.44772267 2.3129697 1.1532049e-38
5.5551291 0.43967852 2.3231845 7.1063054e-39
5.6485753 0.47442141 2.3268535 5.539707e-39
4.4660997 0.52351093 2.3496311 2.3509886e-38
4.5284467 0.57670861 2.3501723 2.3509886e-38
4.6797876 0.52756679 2.3053477 1.918212e-38
4.7507572 0.53973281 2.318393 1.8536756e-38
4.8546815 0.5614568 2.3354104 1.7615527e-38
4.9484286 0.58260989 2.3286371 1.6878321e-38
5.0504999 0.58194077 2.3039238 1.586417e-38
5.1085343 0.5966872 2.3018909 1.5219161e-38
5.2687764 0.56974548 2.30667 1.328485e-38
5.3488898 0.5495044 2.317862 1.2823152e-38
5.4408674 0.53997195 2.3332095 1.0888124e-38
5.5528874 0.54741007 2.3639188 6.9251554e-39
5.6666384 0.52590221 2.3616219 5.8170141e-39
5.7490401 0.5588001 2.3502254 5.6326243e-39
5.805119 0.59709442 2.3282332 5.7255416e-39
4.5744505 0.63204646 2.3521206 2.3326215e-38
4.626153 0.6780355 2.3433926 2.3234019e-38
4.7452478 0.66336924 2.3184206 2.2773763e-38
4.8522286 0.64863354 2.3536155 2.0562166e-38
4.9607172 0.62967384 2.3748553 1.7522965e-38
5.0530443 0.63805419 2.3531997 1.6417344e-38
5.1454635 0.65697706 2.3425176 1.5311355e-38
5.2466865 0.65225953 2.3373957 1.3929861e-38
5.3494802 0.64779621 2.3535843 1.310046e-38
5.442668 0.64850342 2.3729711 1.0611899e-38
5.5478301 0.63004261 2.3931003 7.0177139e-39
5.7893271 0.60883766 2.3828721 5.8170183e-39
5.8467507 0.64241254 2.3495784 5.7262646e-39
5.9285669 0.68734878 2.3352182 6.0964891e-39
6.0251908 0.69796115 2.3034852 6.3737977e-39
4.273891 0.7557832 2.3156917 2.341769e-38
4.3546276 0.75405276 2.3366053 2.2680491e-38
4.4476733 0.75340402 2.3599617 2.2127683e-38
4.5445356 0.76745957 2.3748865 2.083911e-38
4.6525497 0.7289272 2.375016 2.3049631e-38
4.7516513 0.73161048 2.347564 2.3234019e-38
4.8481197 0.75914866 2.3579469 2.3142183e-38
4.9417167 0.76304424 2.3684938 2.2589373e-38
5.0122805 0.76357532 2.3920522 2.1944369e-38
5.1766572 0.71711153 2.3836207 1.5679777e-38
5.2432156 0.74032074 2.3804448 1.494257e-38
5.3434148 0.72939259 2.3905377 1.3929499e-38
5.4167099 0.71343368 2.399081 1.3192297e-38
5.9720335 0.71446997 2.3632331 6.0046536e-39
6.0520539 0.73579365 2.3535364 6.2823209e-39
6.1473536 0.75666928 2.3511438 6.3759571e-39
6.2479801 0.76966327 2.3413658 6.6529069e-39
6.3427 0.78573006 2.3280854 7.1142494e-39
4.2725353 0.86540711 2.3141539 1.8627505e-38
4.3526859 0.849666 2.3269055 1.871899e-38
4.4534922 0.85888886 2.3473814 1.8074343e-38
4.5457201 0.8561517 2.3428645 1.7706639e-38
4.6371737 0.85104775 2.3556292 1.8627154e-38
4.7329149 0.88283998 2.3788943 1.9639862e-38
4.895689 0.8001923 2.3872664 2.3326215e-38
4.958467 0.82009286 2.3818295 2.3234019e-38
5.0451889 0.85442466 2.389822 2.3141823e-38
5.107914 0.88279092 2.3986363 2.3142182e-38
6.2554893 0.80404377 2.3896739 6.7451011e-39
6.3605213 0.81204319 2.374733 7.114248e-39
6.450141 0.82769156 2.3494616 7.5755905e-39
6.5558486 0.86438501 2.350543 7.5766751e-39
6.6236763 0.89072055 2.347563 7.6692322e-39
4.3763781 0.93045366 2.3780046 1.7153823e-38
4.4602747 0.94000793 2.3810811 1.6876518e-38
4.544354 0.95407903 2.3439624 1.6323703e-38
4.6411281 0.95747334 2.3150177 1.6139312e-38
4.7455487 0.95922154 2.3429425 1.6599926e-38
4.8352575 0.97249985 2.3794661 1.7059822e-38
4.9054666 0.99994451 2.3991113 1.6966911e-38
5.1121364 0.90194607 2.3969357 2.3234376e-38
6.6719441 0.9162482 2.3438087 7.7621481e-39
6.7434015 0.96807033 2.3526719 7.854348e-39
4.4952383 1.0265665 2.3995194 1.5954921e-38
4.5491972 1.0468611 2.3559999 1.5309912e-38
4.6480122 1.0525657 2.3136663 1.4757457e-38
4.7457776 1.0508808 2.3172894 1.4850011e-38
4.844285 1.0594374 2.3392818 1.5033322e-38
4.9368625 1.0661826 2.3721821 1.5489985e-38
6.6863618 1.0896506 2.3167324 7.8557927e-39
6.7466955 1.0440747 2.34728 7.8554298e-39
4.5607634 1.146183 2.3616071 1.4387954e-38
4.6371465 1.1498475 2.3189657 1.4019892e-38
4.7463946 1.1498634 2.3228273 1.2546202e-38
4.8602529 1.1673546 2.3320084 8.3995638e-39
4.9398479 1.143936 2.3426111 9.1346121e-39
5.0363708 1.1603937 2.3652506 1.0880212e-38
5.1111994 1.1967301 2.3817489 1.345809e-38
6.6860132 1.16879 2.3125947 7.9479911e-39
6.7443786 1.157665 2.3524532 8.0401854e-39
6.8060079 1.1418855 2.3933711 8.2245766e-39
4.5561142 1.2533652 2.3788161 1.4572342e-38
4.6460195 1.2482059 2.3566499 1.3190128e-38
4.7598205 1.2629806 2.3333194 7.3850503e-39
4.8271532 1.2344759 2.3208475 7.0169908e-39
4.9840374 1.2065096 2.3045111 9.9614959e-39
5.041183 1.2203122 2.324888 1.0603624e-38
5.1488771 1.255268 2.3621938 1.4290365e-38
5.2196331 1.2823341 2.3833442 1.7977464e-38
6.5774574 1.2838256 2.3090484 8.0398308e-39
6.653389 1.2784367 2.3296025 8.0398294e-39
6.7503901 1.2594099 2.3464749 8.0401896e-39
6.8393431 1.2712388 2.3576474 7.9479953e-39
4.5574722 1.3445883 2.3672628 1.438831e-38
4.647614 1.349951 2.3421924 1.0887037e-38
4.7368274 1.319549 2.3266125 8.0304169e-39
5.1751504 1.3186955 2.3344128 1.4477278e-38
5.2403102 1.3505698 2.3512392 1.6044244e-38
5.345377 1.3852261 2.3880436 1.7610848e-38
6.259975 1.3805294 2.3171372 9.7901031e-39
6.3467002 1.3730478 2.3386483 9.4220408e-39
6.4490867 1.3629378 2.3468947 8.5926417e-39
6.5522132 1.3571179 2.3547468 8.3164163e-39
6.6604066 1.3449466 2.3482389 8.0401896e-39
6.7246819 1.3410594 2.3684356 7.9479939e-39
4.2761884 1.4690646 2.3178649 1.3187604e-38
4.3511062 1.4711906 2.3436735 1.3004295e-38
4.4603724 1.463158 2.3722336 1.2543321e-38
4.5484467 1.4521132 2.3681755 1.097744e-38
4.6438293 1.4528127 2.350168 7.1077473e-39
5.1776505 1.4830363 2.3062606 1.2272523e-38
5.2333121 1.4631015 2.3146114 1.3009363e-38
5.3331652 1.4507712 2.3537064 1.4848589e-38
5.4366255 1.4847239 2.3882775 1.6137171e-38
6.1913514 1.4615287 2.3074763 9.4213233e-39
6.2477775 1.4394044 2.3309264 9.8826574e-39
6.3556533 1.4404151 2.3815563 1.0620221e-38
6.4150996 1.4002208 2.3970399 1.0527307e-38
4.3789368 1.506088 2.3177791 9.1338806e-39
4.4568729 1.5130662 2.3474822 8.9494935e-39
4.5490847 1.5153427 2.3743072 7.2903379e-39
4.6289735 1.5067173 2.3896198 6.1847191e-39
5.0867996 1.581795 2.3098342 1.1350565e-38
5.152729 1.556494 2.3146966 1.1534961e-38
5.249455 1.5457615 2.3357816 1.2181048e-38
5.3497524 1.5597961 2.3545985 1.3103004e-38
5.4471779 1.5562156 2.3774078 1.3931684e-38
5.5061431 1.5672245 2.3989737 1.420863e-38
6.1703005 1.5203563 2.3144708 9.7901101e-39
6.2587638 1.5578291 2.3460851 9.7904702e-39
6.3283648 1.5527811 2.3868086 1.0527672e-38
5.0620761 1.6565224 2.3097193 1.1258728e-38
5.1634555 1.6475127 2.3432293 1.1350567e-38
5.25354 1.6485739 2.3649616 1.1904103e-38
5.358429 1.6385918 2.3757074 1.2642387e-38
5.4494081 1.6590545 2.3843882 1.3195564e-38
5.5329413 1.6649758 2.3913252 1.3565068e-38
5.607132 1.6930395 2.398478 1.3473953e-38
6.2792125 1.6599448 2.3490412 9.7911877e-39
6.3087487 1.6210366 2.3749433 9.7904702e-39
5.0753684 1.7448171 2.3093979 1.2366155e-38
5.1518698 1.7572103 2.3379736 1.2827133e-38
