# .PCD v0.7 - Point Cloud Data file format
VERSION 0.7
FIELDS x y z rgb
SIZE 4 4 4 4
TYPE F F F F
COUNT 1 1 1 1
WIDTH 1022
HEIGHT 1
VIEWPOINT 0 0 0 1 0 0 0
POINTS 1022
DATA ascii
2.2634175 1.6594547 -0.82118887 6.1767317e-39
2.3497987 1.646831 -0.8485406 5.070747e-39
2.4492433 1.6549814 -0.84526575 7.0968789e-39
2.5598218 1.6584743 -0.85127276 5.8050667e-39
2.6113482 1.6441051 -0.8498646 6.4515193e-39
2.5904257 -1.6011595 -0.77451324 1.7514282e-38
2.6529789 -1.6029828 -0.75019521 1.7053662e-38
2.4538541 -1.5610552 -0.79426581 1.8528434e-38
2.5446091 -1.5868595 -0.7835573 1.7606836e-38
2.6646028 -1.5594053 -0.76192856 1.7330249e-38
2.7109182 -1.5390584 -0.71843618 1.6961106e-38
2.443069 -1.4725912 -0.79307544 6.7266866e-39
2.6947236 -1.4591503 -0.78278774 1.9451469e-38
2.7425129 -1.456802 -0.7445339 1.8713545e-38
2.8160515 -1.4292504 -0.72578663 1.7790506e-38
2.0775237 -1.3118851 -0.77325553 5.8072499e-39
2.1396673 -1.3405585 -0.79094392 5.9916397e-39
2.6915598 -1.3631067 -0.79225016 1.7793028e-38
2.7448673 -1.3592201 -0.77683097 1.880682e-38
2.8324459 -1.3680371 -0.7408464 1.8160729e-38
1.8970182 -1.2017202 -0.7328909 4.9782067e-39
1.957462 -1.2136363 -0.75457394 5.0704009e-39
2.03666 -1.2482051 -0.77373296 5.2547908e-39
2.1181655 -1.2897705 -0.79105353 5.6235705e-39
2.6730247 -1.2444408 -0.77728945 8.3876359e-39
2.7328024 -1.2685202 -0.74290305 6.0831081e-39
1.7885292 -1.1137764 -0.77998358 4.1498851e-39
1.8437946 -1.1393267 -0.77506077 4.4257518e-39
1.9227929 -1.1893545 -0.76795071 4.7941728e-39
2.4835153 -1.1088352 -0.7736094 9.3074314e-39
2.5447388 -1.1332289 -0.740233 1.5486336e-38
2.6349602 -1.1725928 -0.72364962 1.5486695e-38
1.7744204 -1.0952395 -0.79704005 4.0566105e-39
2.298594 -1.000478 -0.76766127 4.3313883e-39
2.3591061 -1.0269835 -0.75516695 1.1887462e-38
2.4577649 -1.063902 -0.7377308 1.6959662e-38
2.5156333 -1.0847472 -0.70839554 1.9175597e-38
2.0779979 -0.90142006 -0.79437262 1.0129226e-38
2.1317306 -0.90714455 -0.7958079 1.8425725e-38
2.2755041 -0.9438408 -0.76377702 3.8635676e-39
2.33254 -0.95157611 -0.71682829 9.2026213e-39
1.8592061 -0.81382847 -0.77222478 6.3611327e-39
1.9547856 -0.83461607 -0.77132535 1.0231907e-38
2.0540068 -0.84071314 -0.77667195 1.5578159e-38
2.1513438 -0.84139556 -0.78095573 1.426941e-38
2.2594523 -0.85049635 -0.75694305 8.5525701e-39
2.3089526 -0.85294521 -0.71161354 8.8251928e-39
1.546779 -0.7097258 -0.72840959 2.5811133e-39
1.7684977 -0.74063003 -0.75709683 3.7800208e-39
1.8385303 -0.74637258 -0.74224871 4.2406374e-39
1.9449455 -0.75009769 -0.75704306 4.9778409e-39
2.0606499 -0.76621699 -0.78333652 9.5879798e-39
2.1508055 -0.75253463 -0.78504854 1.6226054e-38
2.247699 -0.74780971 -0.74432677 1.0569704e-38
2.3025982 -0.72565085 -0.70173091 1.2594396e-38
1.4826887 -0.67812026 -0.71799737 2.4889177e-39
1.5191222 -0.68673545 -0.72712195 2.6729502e-39
1.7656111 -0.6746071 -0.74437952 3.8722151e-39
1.8473586 -0.66119957 -0.74998248 4.1488033e-39
1.9528341 -0.66233498 -0.77197355 4.5172257e-39
2.034848 -0.65854055 -0.79110461 4.7938126e-39
2.1874821 -0.65140331 -0.79188842 1.7700827e-38
2.2666297 -0.6531108 -0.76194692 1.5350541e-38
2.3170009 -0.64376181 -0.71509928 9.7435435e-39
1.9418552 -0.59867835 -0.77318555 4.4253902e-39
2.0802753 -0.52373254 -0.77386934 1.3552028e-38
2.1456177 -0.55129302 -0.77555484 1.5486325e-38
2.2594671 -0.55450392 -0.77275628 1.0767793e-38
2.3314426 -0.54868519 -0.73493707 5.0625508e-39
1.8739552 -0.43470666 -0.75701475 4.3331918e-39
1.9570342 -0.42961419 -0.74618119 1.0417016e-38
2.0363514 -0.45126081 -0.75286454 1.5579596e-38
2.1528041 -0.44597101 -0.77316999 1.2070021e-38
2.2441151 -0.44472262 -0.77760631 1.3727022e-38
2.3592007 -0.45845556 -0.75305331 3.5035082e-39
2.4487951 -0.42678404 -0.73084038 2.1208947e-39
2.5023065 -0.40324736 -0.71225709 2.7658815e-39
1.8802018 -0.39063841 -0.76236087 6.6380825e-39
1.9437619 -0.39018619 -0.7686559 5.4384548e-39
2.0536804 -0.3868582 -0.78809237 4.51253e-39
2.1685691 -0.36327285 -0.79347432 9.674744e-39
2.2404768 -0.34708968 -0.78053164 1.1148419e-38
2.3706799 -0.3492862 -0.7747615 2.0283025e-39
2.4605093 -0.34732294 -0.73512876 5.7186458e-39
2.5024617 -0.36928496 -0.70748287 5.3473451e-39
2.2654881 -0.27521375 -0.79434717 9.0282885e-39
2.3518586 -0.27098069 -0.7889058 8.1092217e-39
2.4521675 -0.25133023 -0.76575166 3.5956254e-39
2.5054142 -0.24525853 -0.72864562 5.5288525e-39
2.1891923 -0.12708299 -0.78787762 1.6952715e-38
2.2467775 -0.13758381 -0.78430974 8.017382e-39
2.3572662 -0.14051479 -0.76932055 3.2268456e-39
2.4407659 -0.15256424 -0.7483452 5.4380946e-39
2.5249004 -0.17780837 -0.75704223 8.3876359e-39
2.1606777 -0.04569016 -0.74900383 1.2716446e-38
2.2360983 -0.089349963 -0.73209012 7.1912521e-39
2.3203409 -0.099432118 -0.73807752 8.6667367e-39
2.1417162 0.049725618 -0.74481714 1.022501e-38
2.1392083 0.14949456 -0.74371505 7.1008488e-39
2.1346376 0.25005817 -0.73902893 6.9128506e-39
2.1379817 0.3508395 -0.74266988 7.6496911e-39
2.1273296 0.44953164 -0.74491066 1.0503776e-38
2.0978198 0.57720554 -0.72391331 3.4087048e-39
2.1230388 0.54789889 -0.74180025 1.1886708e-38
2.0986207 0.6590336 -0.73526919 1.2162182e-38
2.1185436 0.64868844 -0.74458307 7.0947153e-39
2.0948944 0.7310077 -0.74047053 1.2805752e-38
2.1183057 0.75252479 -0.7473402 4.6050829e-39
2.1479275 0.84890842 -0.74150258 6.8202976e-39
2.2055612 0.89266557 -0.79545641 6.3517342e-39
1.5800749 0.97545171 -0.77033603 7.284531e-39
1.6177051 0.99267149 -0.78146791 7.0079427e-39
1.7730216 0.99365002 -0.75351721 4.8874446e-39
1.8433656 0.96111369 -0.74658853 4.7030533e-39
1.9399285 0.94070226 -0.73489118 5.0718358e-39
2.0690398 0.96242189 -0.74945498 9.773813e-39
2.1321907 0.93264019 -0.74799806 9.0340759e-39
2.2110629 0.92149919 -0.79319066 8.7488066e-39
1.6751146 1.019744 -0.78662199 7.6536694e-39
1.7368588 1.0363171 -0.77186662 7.3774441e-39
1.8095406 1.0917137 -0.78754282 5.4416974e-39
2.1707571 1.0350703 -0.71231067 1.00504e-38
2.2263308 1.0760596 -0.71816033 1.1341499e-38
1.7727453 1.1169841 -0.78360945 1.0235865e-38
1.8233182 1.1264775 -0.7935552 8.1153678e-39
2.24418 1.1555681 -0.73706871 1.1709921e-38
2.2654305 1.2377207 -0.75292003 1.1802117e-38
2.3111584 1.2783357 -0.72263241 1.2078704e-38
2.2988195 1.3010197 -0.79592639 1.1894312e-38
2.354851 1.3476443 -0.75152576 1.1894311e-38
2.4088056 1.3909619 -0.71499503 1.2078702e-38
1.7898011 1.4835203 -0.70295268 3.4105138e-39
1.8083727 1.4948697 -0.70777357 3.871492e-39
2.3932993 1.4094357 -0.77931249 1.170992e-38
2.4392207 1.4517963 -0.74557316 1.189431e-38
1.8659341 1.5381892 -0.71225053 4.0551546e-39
1.9307917 1.5767382 -0.72813916 5.4373659e-39
2.0239842 1.5903634 -0.76712114 7.2834337e-39
2.1154294 1.5970032 -0.72656596 4.4235756e-39
2.4850514 1.5125822 -0.75565732 1.1893945e-38
2.5348494 1.5574293 -0.73984367 1.1525163e-38
1.8975661 1.6228069 -0.70080012 6.7241307e-39
1.9545535 1.6462665 -0.71456969 6.4489829e-39
2.0574286 1.6547735 -0.74505872 5.8972539e-39
2.1324081 1.6438055 -0.74442708 5.2515271e-39
2.2450562 1.6355944 -0.75203979 6.3564258e-39
2.3504932 1.6494278 -0.75576645 6.8174067e-39
2.4465477 1.652213 -0.75290847 8.2947032e-39
2.5528889 1.6405613 -0.74888963 6.0845416e-39
2.6061871 1.6323215 -0.76801401 8.943325e-39
1.9783664 1.7369291 -0.71067441 1.8431867e-39
2.0548556 1.7220967 -0.71529675 1.7506352e-39
2.1105764 1.7153622 -0.71903217 1.8424707e-39
2.5997267 -1.5234783 -0.60381854 1.4565819e-38
2.6627851 -1.5298251 -0.64345592 1.5026437e-38
2.7396824 -1.5233049 -0.65945739 1.4472183e-38
2.8549414 -1.5209219 -0.64182854 1.2257671e-38
2.7737753 -1.4917328 -0.69057739 1.6683438e-38
2.8720303 -1.4514567 -0.65744841 1.5390513e-38
2.796782 -1.3020488 -0.69800478 9.2166693e-39
2.8583512 -1.3504099 -0.65073609 1.539087e-38
2.6880212 -1.2079607 -0.67415035 1.6408282e-38
2.7519426 -1.245189 -0.67184168 1.3918282e-38
2.8305631 -1.2514434 -0.63347334 1.4007208e-38
2.5893204 -1.1046057 -0.69852495 1.6777794e-38
2.6678267 -1.1479201 -0.67067605 1.5578884e-38
2.7507427 -1.1506772 -0.64542866 1.3640962e-38
2.8229294 -1.1529632 -0.62414676 1.2532076e-38
2.4587038 -1.0178099 -0.68794644 1.9800789e-38
2.553807 -1.047889 -0.68772858 1.7054015e-38
2.6549761 -1.055776 -0.66664124 1.3919001e-38
2.7589674 -1.0363979 -0.6423353 1.1334264e-38
2.8082869 -1.0812224 -0.6221031 1.0779999e-38
1.3622315 -0.90913796 -0.63556135 8.9537941e-39
1.4075618 -0.91287881 -0.66522747 1.2923242e-38
2.3758068 -0.94138306 -0.68320662 1.4065204e-38
2.4431114 -0.94868022 -0.6649484 1.7024462e-38
2.5453744 -0.94957054 -0.66319156 1.0228656e-38
2.6643622 -0.93037885 -0.6565541 9.7662151e-39
2.727371 -0.96134812 -0.63001335 1.0501974e-38
1.2616193 -0.88631976 -0.61037123 9.6891942e-39
1.3071613 -0.89768976 -0.61945999 7.2002751e-39
2.3472533 -0.84919548 -0.67281437 8.8237522e-39
2.44784 -0.84809893 -0.65993088 1.0394661e-38
2.5488019 -0.84507293 -0.67334807 1.4356177e-38
2.6660867 -0.85315156 -0.64529318 1.0868957e-38
2.7030723 -0.881387 -0.60497952 1.0501254e-38
2.2865412 -0.74156994 -0.6945926 1.5804676e-38
2.3519428 -0.74959129 -0.68417615 1.3513108e-38
2.445534 -0.74721932 -0.66778225 1.1311577e-38
2.5430472 -0.74302417 -0.64277476 9.1990087e-39
2.6385267 -0.77630794 -0.62358963 1.0409427e-38
1.3909856 -0.6062364 -0.6744734 2.8573373e-39
1.4403906 -0.63252735 -0.68341947 2.8576988e-39
1.5087508 -0.66213202 -0.69679695 2.7655046e-39
2.3582563 -0.65088773 -0.68823886 9.9272187e-39
2.4567463 -0.65026921 -0.65692621 5.703167e-39
2.5168962 -0.66401953 -0.61965537 3.6827819e-39
1.2841486 -0.51652902 -0.61700869 3.7785705e-39
1.3390158 -0.5621357 -0.63513219 3.318314e-39
2.3773508 -0.54991752 -0.67555565 4.2382132e-39
2.4545965 -0.54940969 -0.62930632 3.31984e-39
1.2661757 -0.43960601 -0.61369216 5.3451675e-39
2.3891418 -0.48660466 -0.68417871 3.2269255e-39
2.4653764 -0.45680371 -0.65228426 2.4900485e-39
2.503978 -0.40945327 -0.63925427 2.8569883e-39
1.2883396 -0.38392869 -0.61724001 4.4250161e-39
1.3409541 -0.35304013 -0.64175278 3.2275659e-39
2.4892988 -0.31239402 -0.62783289 6.9074612e-39
2.5107193 -0.35688907 -0.65517336 4.2388312e-39
2.4613576 -0.24699418 -0.64406598 1.2138828e-38
2.526556 -0.2292048 -0.63065618 9.4799158e-39
2.3830097 -0.11688352 -0.64406544 5.3444514e-39
2.4345188 -0.16418356 -0.64829874 7.5420139e-39
2.5541837 -0.16678125 -0.61911237 1.1982521e-38
2.6312647 -0.17433383 -0.61853808 1.6316798e-38
2.1763754 -0.031392518 -0.6537227 1.0973431e-38
2.2243688 -0.076713368 -0.64681947 1.3645659e-38
2.3200791 -0.097800396 -0.64102334 4.9771109e-39
2.1572661 0.04969772 -0.6517899 1.3924411e-38
2.1538997 0.14947389 -0.65257394 1.3831856e-38
2.1633201 0.24930574 -0.65104026 1.3554911e-38
2.1545374 0.35042286 -0.65106761 1.1341855e-38
2.1396654 0.44918984 -0.65871418 8.1139287e-39
2.2592885 0.46404645 -0.62927836 2.0286612e-39
2.3108191 0.48614889 -0.61184144 1.2903759e-39
2.1429503 0.55193287 -0.65190047 1.1986505e-38
2.2626109 0.55200827 -0.62818164 1.6616891e-39
2.3217406 0.54487479 -0.62151814 1.4754902e-39
2.1340027 0.65024525 -0.65049005 5.9023378e-39
2.1339235 0.74936134 -0.6514464 3.3194252e-39
1.2712485 0.84323198 -0.61288935 3.4123173e-39
1.3004787 0.82707298 -0.60829747 3.9654869e-39
2.1414242 0.84952122 -0.64999515 3.0518795e-39
1.7959509 0.99020195 -0.69138962 5.7172052e-39
1.8500772 0.95516479 -0.67831421 4.241715e-39
1.9440818 0.93589097 -0.67965162 3.5963456e-39
2.05 0.95924526 -0.68827993 5.7172052e-39
2.1550348 0.94472897 -0.66232234 7.2885177e-39
2.2072501 0.98761815 -0.62534761 1.0788325e-38
2.1729231 1.0078654 -0.69343632 9.6816187e-39
2.2335498 1.0504395 -0.64940459 1.1248943e-38
2.2732089 1.1435599 -0.6604743 1.171028e-38
2.3379853 1.163493 -0.6156804 7.7440644e-39
2.4158006 1.1894767 -0.60480863 4.8841936e-39
2.2939625 1.2090673 -0.67999887 1.2263455e-38
2.3423808 1.248544 -0.65502816 1.0971992e-38
2.4315195 1.2571038 -0.61298579 5.6224789e-39
2.3737075 1.3279413 -0.67671973 1.1894311e-38
2.4491546 1.3543839 -0.63758755 7.8358943e-39
1.7659154 1.4778883 -0.6873998 4.6094101e-39
1.800549 1.4969784 -0.69614118 5.0703869e-39
2.4763608 1.4325202 -0.66597533 9.5879742e-39
2.5174129 1.4674429 -0.63711435 6.4518794e-39
1.773434 1.5391823 -0.67960513 5.4359198e-39
1.8316749 1.5536628 -0.69088793 4.7905504e-39
1.9993505 1.5695488 -0.60859329 4.9771137e-39
2.0468674 1.5737094 -0.63418061 3.410511e-39
2.1483452 1.586561 -0.65061551 3.2253995e-39
2.2549415 1.5987039 -0.63670856 7.0021749e-39
2.4860718 1.5778923 -0.62413371 6.5433604e-39
2.5470662 1.5508424 -0.64883047 6.6366322e-39
1.8607489 1.6273515 -0.69064146 6.9092394e-39
1.9826646 1.6693487 -0.61945957 5.1618651e-39
2.0367305 1.6443398 -0.64559543 6.2682028e-39
2.1504729 1.6332386 -0.68321711 4.054077e-39
2.2475691 1.6051712 -0.64802539 4.9753116e-39
2.3564119 1.6221056 -0.65012765 7.4653083e-39
2.4480438 1.6255687 -0.64694571 6.7288292e-39
2.5443194 1.6213152 -0.66599262 6.6366364e-39
1.9786774 1.7421925 -0.65137756 4.8856327e-39
2.0273514 1.7268095 -0.68038607 6.6351805e-39
2.1004198 1.7068986 -0.69996214 2.7636941e-39
2.0147715 1.8037019 -0.60383981 4.7963209e-39
2.5901237 -1.5064127 -0.54761475 1.4197037e-38
2.6475413 -1.5075628 -0.54755032 1.3550947e-38
2.7471139 -1.5200235 -0.54948676 1.2444235e-38
2.8511388 -1.5250251 -0.55724078 1.1244244e-38
2.5950668 -1.4994032 -0.53386778 1.4012646e-38
2.6081159 -1.4990385 -0.56382668 1.4381068e-38
2.7932935 -1.4132625 -0.50572079 4.7898287e-39
2.8550096 -1.4526429 -0.55300528 1.1519374e-38
2.791327 -1.3719001 -0.50943255 9.6747412e-39
2.8400252 -1.3447502 -0.5534274 1.3085971e-38
2.8413727 -1.2500223 -0.54990041 1.2716827e-38
2.8323548 -1.1518891 -0.55176181 1.1794509e-38
2.7807598 -1.0366513 -0.5467155 1.0870755e-38
2.807435 -1.0860052 -0.55998963 1.1240258e-38
1.0778508 -0.9279108 -0.51564896 7.1062746e-39
1.1423324 -0.91065538 -0.52702606 7.3825041e-39
1.2281706 -0.90592116 -0.51921159 1.1812945e-38
1.3531373 -0.90651053 -0.55953592 9.9693852e-39
2.7463994 -0.94656575 -0.54880106 1.0409058e-38
1.1792966 -0.89525515 -0.55773109 8.952355e-39
1.253566 -0.89204156 -0.55614799 1.1165772e-38
1.3157467 -0.89475524 -0.5455631 1.1628909e-38
2.696692 -0.81696826 -0.59395993 9.1186835e-39
2.725879 -0.85284132 -0.54975891 9.4871059e-39
2.578701 -0.71040446 -0.56799763 7.4642475e-39
2.6660793 -0.75568062 -0.55521071 8.5676902e-39
2.7061641 -0.78829354 -0.53260887 8.6580725e-39
2.4984407 -0.61122739 -0.53784025 3.5057068e-39
2.5174909 -0.65527254 -0.55363101 3.9652164e-39
1.2845013 -0.50972664 -0.58888268 3.8718465e-39
1.3079621 -0.52780235 -0.59284377 3.6874581e-39
2.4937701 -0.55693156 -0.55763245 2.4915255e-39
2.5051067 -0.52151483 -0.52504706 4.2436418e-39
1.1926497 -0.42072961 -0.58379197 6.0802004e-39
1.2380046 -0.43690732 -0.56207889 4.2399074e-39
1.3015734 -0.46011463 -0.55517477 2.2126937e-39
2.4867692 -0.44899878 -0.54864949 4.7841016e-39
2.5043406 -0.44592953 -0.55901623 4.0548505e-39
1.2656093 -0.37773806 -0.55625057 2.8576988e-39
1.3053278 -0.35923362 -0.55858999 2.3048893e-39
2.4711373 -0.34878144 -0.54849875 1.1148104e-38
2.5279143 -0.34741285 -0.53707427 5.8947414e-39
2.4468615 -0.26792213 -0.57325566 1.5187772e-38
2.5569456 -0.25214159 -0.54786181 8.1056162e-39
2.6182678 -0.2190197 -0.54026318 7.5549661e-39
2.3745687 -0.10549108 -0.57312936 4.607964e-39
2.4474702 -0.11491462 -0.56232446 1.0503051e-38
2.5612612 -0.12461625 -0.55349523 1.0596328e-38
2.6277833 -0.15953831 -0.54722273 9.3985116e-39
2.1728051 -0.024116451 -0.55108774 5.2562257e-39
2.2345319 -0.06555447 -0.54997408 1.2168727e-38
2.3415558 -0.086205505 -0.53878796 9.5810994e-39
2.4486079 -0.082710043 -0.51885706 1.1974555e-38
2.5568871 -0.085860685 -0.51658821 5.6192223e-39
2.6003802 -0.096426584 -0.52143794 5.2508041e-39
2.1666141 0.049373493 -0.54685622 4.7959664e-39
2.1673741 0.14905339 -0.54842699 4.3357099e-39
2.1708343 0.24964549 -0.54802191 4.0602091e-39
2.1656303 0.34995028 -0.54933828 6.8257122e-39
2.1731036 0.40805495 -0.5569331 9.4043018e-39
2.259306 0.44216555 -0.53945076 3.5938163e-39
2.312108 0.48134965 -0.55614626 3.5012605e-39
2.1876192 0.59225297 -0.56236774 3.5106758e-39
2.2440889 0.58538699 -0.54688984 1.6642297e-39
2.3248136 0.54675561 -0.55226851 2.8569771e-39
2.1609509 0.64735335 -0.55158728 3.6025155e-39
2.1526074 0.7504667 -0.55093426 3.1375591e-39
1.0748485 0.83055997 -0.51493078 4.058407e-39
1.1519275 0.86012512 -0.5339725 3.8736556e-39
1.254101 0.86788434 -0.56048274 3.7807411e-39
1.3008645 0.83306396 -0.59152979 4.1502383e-39
2.1532109 0.84786189 -0.55163848 3.5985303e-39
1.2588658 0.940539 -0.51956278 7.9302563e-39
1.3178238 0.99572921 -0.53582138 1.2540748e-38
2.1785893 0.92512769 -0.56965101 5.1658504e-39
2.2377768 0.96401209 -0.54630852 4.5183075e-39
1.2984202 1.0017712 -0.50856042 1.3186112e-38
1.3519835 1.0151688 -0.5371536 1.3001726e-38
1.4213843 1.0320774 -0.56203854 1.3093209e-38
2.2595518 1.0335474 -0.58729947 5.9923474e-39
2.3437054 1.0561105 -0.54707497 5.068582e-39
2.2946112 1.100017 -0.5991587 7.0064993e-39
2.3836386 1.1142166 -0.55771238 5.2526103e-39
2.4245913 1.1658318 -0.5510577 5.620667e-39
2.4464729 1.2510302 -0.55044419 6.1734778e-39
2.4635909 1.3481869 -0.54997277 6.4493431e-39
2.4913087 1.4170611 -0.54588354 6.2645931e-39
2.5103199 1.4689981 -0.55047745 6.3564286e-39
2.041007 1.5661662 -0.5677259 6.8224696e-39
2.1368475 1.5836569 -0.56355798 3.5016263e-39
2.3955979 1.5961559 -0.51709741 7.4606139e-39
2.4593534 1.5664403 -0.53986323 7.1836697e-39
2.511313 1.5268049 -0.56583101 6.5404611e-39
1.9049087 1.6950388 -0.59496015 1.3462336e-38
2.0518389 1.6544343 -0.57157689 7.1923297e-39
2.165586 1.6415298 -0.53844362 4.2363088e-39
2.2532623 1.6305293 -0.55154759 5.8003849e-39
2.3492284 1.6305887 -0.53950208 6.8141683e-39
2.4221427 1.6118572 -0.58107662 6.6276247e-39
1.9783837 1.7309154 -0.5963679 6.6384315e-39
2.0474629 1.7488725 -0.57058847 6.3618502e-39
2.1465466 1.7501653 -0.54828978 6.2685714e-39
2.2483866 1.7465303 -0.53528243 5.2472111e-39
2.313936 1.7579572 -0.51288992 6.6330155e-39
2.0600817 1.8233271 -0.55653042 6.2692958e-39
2.1376705 1.8536092 -0.5391801 7.098688e-39
2.2571721 1.8445259 -0.55868757 4.9753088e-39
2.3541365 1.8570447 -0.53070748 6.35643e-39
2.1688287 1.9212195 -0.535622 6.8217437e-39
2.2497637 1.9425212 -0.55024761 6.0830941e-39
2.3665903 1.9426439 -0.55437183 5.8972567e-39
2.4095089 1.9714119 -0.53192908 6.4504235e-39
2.2736225 2.0177977 -0.5490998 5.8990672e-39
2.3706312 2.0424304 -0.55149209 5.8054212e-39
2.4137876 2.0472567 -0.52044791 6.1738394e-39
2.3813667 2.1246524 -0.56038696 4.9763948e-39
2.4368711 2.1517947 -0.53299576 6.1742051e-39
2.4728856 2.2195556 -0.52884138 5.5295658e-39
2.5172639 2.2700653 -0.5118323 5.8990644e-39
2.5360923 2.3060813 -0.5103783 4.9774738e-39
2.6703479 -2.3399489 -0.4118695 8.483786e-39
2.486155 -2.206532 -0.41782767 1.5119342e-38
2.5627406 -2.2526836 -0.41357356 1.4476496e-38
2.6263449 -2.2750337 -0.41075307 1.0328783e-38
2.3922658 -2.1145871 -0.42563727 1.4843836e-38
2.450623 -2.1402826 -0.41613224 1.4844559e-38
2.5462153 -2.1427372 -0.40914702 1.4845272e-38
2.6095116 -2.1524799 -0.40323707 1.4660847e-38
2.3605597 -2.0615511 -0.42365232 1.4567976e-38
2.4380202 -2.0770042 -0.42164108 1.4661251e-38
2.5135598 -2.0916665 -0.42437899 1.4568696e-38
2.6669154 -1.6148 -0.40421227 1.6780677e-38
2.5841036 -1.5217694 -0.44874078 1.2169093e-38
2.6572673 -1.5330865 -0.44233385 1.2537155e-38
2.7473652 -1.5195743 -0.44277143 1.0876548e-38
2.8163731 -1.5147288 -0.46787414 8.5712901e-39
2.5447915 -1.4986243 -0.44787943 1.097091e-38
2.7858448 -1.4329635 -0.44101545 6.6337371e-39
2.8101475 -1.4750918 -0.45756182 6.8192116e-39
2.7687645 -1.3504846 -0.44456086 8.5680377e-39
2.8063607 -1.3160367 -0.47901979 1.0319386e-38
2.7940073 -1.2771754 -0.4157387 9.3959921e-39
2.8172491 -1.2455411 -0.45649394 1.004172e-38
2.787262 -1.1273793 -0.42525944 9.3034377e-39
2.8172991 -1.1622486 -0.4607383 9.9495246e-39
2.7600949 -1.0484774 -0.4508149 9.7644117e-39
2.8014297 -1.0980952 -0.49506867 1.0318301e-38
1.078648 -0.93376315 -0.4486835 6.7407305e-39
1.1411012 -0.9195925 -0.45764729 5.8061625e-39
1.2373379 -0.90482467 -0.48279405 1.0060503e-38
1.3126872 -0.91010845 -0.49078044 1.3475346e-38
2.7369092 -0.94757473 -0.44956288 9.3034349e-39
1.1557065 -0.87323976 -0.41872048 4.787326e-39
1.2387249 -0.89385796 -0.46777686 1.1996251e-38
1.3081497 -0.89736992 -0.49845931 1.3381349e-38
2.7384336 -0.85176265 -0.44975519 8.6577082e-39
2.5934615 -0.70154142 -0.46391088 6.9103801e-39
2.6687777 -0.73918009 -0.44605437 7.7379253e-39
2.7094135 -0.78538054 -0.451648 8.1974531e-39
2.4985461 -0.60723323 -0.48871163 3.8741446e-39
2.5301783 -0.64265001 -0.44824141 5.1616058e-39
2.6159251 -0.68565428 -0.41151023 7.552818e-39
2.4982924 -0.57938552 -0.48663807 4.2429216e-39
2.5234103 -0.5464623 -0.44467837 5.3409524e-39
2.4931581 -0.44094211 -0.49349886 1.6744645e-38
2.536983 -0.45142791 -0.44754934 1.094642e-38
2.5467482 -0.35057902 -0.45061281 6.7241307e-39
2.5710177 -0.25150138 -0.45024449 6.9099611e-39
2.6024175 -0.20484288 -0.49395758 7.2791037e-39
2.5695894 -0.14942014 -0.44803047 6.7259271e-39
2.6032584 -0.1791642 -0.49528402 7.7400819e-39
2.1989548 -0.010427603 -0.4967227 8.3804444e-39
2.2551732 -0.027757242 -0.48621589 1.538146e-38
2.3373065 -0.045749877 -0.48372376 1.5013393e-38
2.4775608 -0.023075433 -0.45281819 6.8181214e-39
2.5295215 -0.070362955 -0.44978487 6.541896e-39
2.198956 0.024420405 -0.49709329 7.1862074e-39
2.2441807 0.058272887 -0.47181872 1.2898315e-38
2.3499944 0.061027989 -0.44575226 5.713943e-39
2.4415848 0.03339145 -0.4411734 6.7270103e-39
2.1922078 0.15586211 -0.49306381 8.5694992e-39
2.2283125 0.14825676 -0.44536102 1.0869666e-38
2.1941757 0.25059992 -0.49363124 7.8366061e-39
2.2250669 0.2469189 -0.44734088 1.1239169e-38
2.3418994 0.28932837 -0.42284575 4.423214e-39
2.4045174 0.2993539 -0.40411037 6.0812906e-39
2.1888289 0.35135245 -0.48691139 9.1255443e-39
2.2312131 0.3494249 -0.45148712 1.6030441e-38
2.3512559 0.3443976 -0.43795896 8.4805476e-39
2.4554925 0.33753827 -0.42989048 6.3571516e-39
2.5174363 0.37830627 -0.42457557 7.4631292e-39
2.1983206 0.40280619 -0.4883872 7.1883612e-39
2.2545111 0.44326675 -0.46835965 1.14232e-38
2.3495703 0.45942777 -0.45013946 8.2954389e-39
2.4547267 0.47511899 -0.43459451 5.6210285e-39
2.5366907 0.44082788 -0.42679727 6.726646e-39
2.1975987 0.59855765 -0.4945668 3.0507781e-39
2.2540462 0.56931162 -0.45830396 7.0090357e-39
2.348387 0.53940505 -0.43801886 3.8722108e-39
2.4169295 0.50287884 -0.41906196 5.3451619e-39
2.1747632 0.65488994 -0.45306152 3.0507991e-39
2.2106214 0.61043239 -0.43387955 6.7411368e-39
0.95676756 0.77240062 -0.45115781 7.1937703e-39
1.0069052 0.7981624 -0.47036859 4.6122954e-39
2.1685426 0.74945074 -0.4504379 3.6032526e-39
0.98937184 0.81492639 -0.45394135 1.2079773e-38
1.0452702 0.84026581 -0.45495796 9.5897748e-39
1.1205759 0.86385179 -0.48091388 6.7313544e-39
2.1772974 0.84634936 -0.45176694 3.6017995e-39
2.2018142 0.89670718 -0.41197252 2.1244848e-39
1.1971906 0.94180417 -0.48100218 1.2909527e-38
1.228322 0.96119004 -0.49210146 1.3001722e-38
2.1953535 0.90383089 -0.47808677 3.9676813e-39
2.2490318 0.94832867 -0.44774741 4.6105032e-39
2.3023574 0.99761629 -0.44751382 5.3451717e-39
2.3423171 1.0509468 -0.44928327 5.8050625e-39
2.38574 1.1366842 -0.43655306 6.173838e-39
2.4133263 1.1718681 -0.46785977 6.2660322e-39
2.3962553 1.2169962 -0.40623888 6.4500633e-39
2.4247472 1.2519143 -0.45373687 6.5419002e-39
2.4504185 1.3483696 -0.45141169 6.4493445e-39
2.4873047 1.4502294 -0.43885812 6.3567887e-39
2.5034468 1.4718757 -0.48040095 6.5408198e-39
2.3961799 1.5940247 -0.43747541 7.4613356e-39
2.4514601 1.5518501 -0.45151389 7.0932719e-39
2.5006273 1.5028449 -0.49215874 6.7241307e-39
2.3564289 1.6495211 -0.45262021 7.5538899e-39
2.3279617 1.7428674 -0.44871488 7.1869081e-39
2.3709784 1.8511648 -0.44909149 6.9114002e-39
2.3950555 1.9107434 -0.45272356 6.7273677e-39
2.4169316 1.9615395 -0.45146194 6.7270103e-39
2.4470739 2.0515437 -0.45274413 6.358588e-39
2.4689193 2.1488369 -0.44716978 5.8979742e-39
2.4858737 2.224633 -0.44171014 4.9771053e-39
2.5107732 2.2624376 -0.48306137 5.0689408e-39
2.5315559 2.3028693 -0.49394202 5.6224761e-39
2.5948052 -2.3055894 -0.39154431 1.5303369e-38
2.6740539 -2.3380342 -0.34668157 1.2263803e-38
2.7051537 -2.3116524 -0.30705348 1.0145823e-38
2.5880735 -2.2543118 -0.39731023 1.2816258e-38
2.6558371 -2.2457898 -0.36106941 1.189465e-38
2.711369 -2.2471182 -0.31690812 1.4478985e-38
2.5855742 -2.1675448 -0.39642861 1.3922932e-38
2.6514933 -2.1513519 -0.35515061 1.3553786e-38
2.710216 -2.186096 -0.31642488 8.9432942e-39
2.5815988 -2.0560274 -0.35318956 1.1248923e-38
2.6703928 -2.0720174 -0.32533726 1.3185759e-38
2.7076654 -2.0433426 -0.30893877 1.0513526e-38
2.4967973 -1.9584399 -0.33137146 1.2540032e-38
2.5287166 -1.9849409 -0.33414611 1.2263804e-38
2.6576359 -1.944597 -0.30781105 6.7320662e-39
2.7048438 -1.9690096 -0.30131659 8.390147e-39
2.5739679 -1.8057908 -0.30383828 8.8514601e-39
2.6128614 -1.8379611 -0.30369467 9.6797746e-39
2.4954593 -1.7701825 -0.30239302 7.0097279e-39
2.5732942 -1.7815747 -0.30966926 1.1433275e-38
2.6295342 -1.7605112 -0.31599548 1.3554519e-38
2.5869181 -1.6683286 -0.32321993 9.2213595e-39
2.6634104 -1.6391437 -0.34190625 1.6319341e-38
2.6879237 -1.5887668 -0.36733523 1.3552388e-38
2.7511272 -1.5479639 -0.34897089 1.0046424e-38
2.778635 -1.4555678 -0.35131636 7.0014434e-39
2.6988106 -1.32652 -0.30367374 7.4598993e-39
2.7368045 -1.3425037 -0.35292199 7.0000001e-39
2.7737498 -1.2517401 -0.34898093 8.9339335e-39
2.8012846 -1.2168521 -0.39468363 9.2112421e-39
2.7738883 -1.150957 -0.34897748 8.8417365e-39
2.8008194 -1.1925224 -0.39538765 9.2108833e-39
1.1379116 -1.0063264 -0.33885247 9.9578385e-39
1.2162223 -1.0780919 -0.30045074 1.2446388e-38
2.6970966 -1.0072013 -0.32391611 8.5633531e-39
2.725086 -1.0525937 -0.35193658 8.564072e-39
1.0950327 -0.94875878 -0.39460987 8.4938838e-39
1.1198468 -0.94820523 -0.35406521 8.112484e-39
2.6906464 -0.95053083 -0.34408319 7.9194243e-39
2.7037897 -0.93004167 -0.38846397 7.7364735e-39
1.1259898 -0.85155356 -0.34533617 6.3499574e-39
1.2317806 -0.8491478 -0.37026393 9.4791998e-39
2.6960304 -0.84411979 -0.32178265 7.2744178e-39
2.7080221 -0.85621148 -0.36406782 7.2751381e-39
1.1684916 -0.7908147 -0.31291452 5.7967878e-39
2.666388 -0.74900699 -0.34793988 6.5379374e-39
2.7023113 -0.79609329 -0.38886347 6.8141627e-39
2.5839565 -0.62779462 -0.35116753 7.363375e-39
2.6142132 -0.67819953 -0.34884006 6.1698765e-39
2.5724623 -0.54906738 -0.35052437 8.0051445e-39
2.5622087 -0.44952625 -0.35079953 5.6177859e-39
2.5394001 -0.34990454 -0.34909782 5.7107018e-39
2.4944277 -0.21440454 -0.31931621 5.2504439e-39
2.5265875 -0.25534418 -0.35321859 5.8954532e-39
2.4696727 -0.14860684 -0.32697782 5.2508041e-39
2.5267818 -0.15096493 -0.37904915 6.7262873e-39
2.3956747 -0.010605736 -0.30632752 4.7901861e-39
2.4527407 -0.044724714 -0.34404397 5.6199439e-39
2.5120251 -0.075140357 -0.38125673 6.6344518e-39
2.2968194 0.095799126 -0.3765758 2.304518e-39
2.3559341 0.069814838 -0.33447659 4.055149e-39
2.4361985 0.03636096 -0.36378974 5.9898068e-39
2.2588248 0.15013184 -0.35162723 4.7019687e-39
2.301621 0.104391 -0.31364912 2.3052411e-39
2.2778897 0.23233214 -0.35372904 1.936104e-39
2.3343079 0.27240166 -0.34367797 3.9622331e-39
2.4261127 0.29318655 -0.33854139 7.7415224e-39
2.4766848 0.31444255 -0.36382884 7.8322719e-39
2.537451 0.36123839 -0.34870017 8.7527821e-39
2.4805114 0.49269083 -0.38159895 5.8972525e-39
2.5592918 0.45404884 -0.35505933 7.0947069e-39
2.61251 0.44713718 -0.32576779 8.1077756e-39
2.2521715 0.58245081 -0.3576197 1.0146596e-38
2.3545184 0.54984719 -0.35775217 9.1280834e-39
2.4458933 0.53548491 -0.33781543 6.0827283e-39
2.5153563 0.51049393 -0.32479191 5.6206684e-39
2.1831679 0.65854853 -0.36194637 5.7244626e-39
2.2228525 0.63468057 -0.33720273 1.1990137e-38
2.3600636 0.64530987 -0.31104371 5.438082e-39
2.1786087 0.75060731 -0.35886517 5.539351e-39
2.2317581 0.74730814 -0.30986607 1.3276528e-38
2.3238733 0.72263944 -0.30486658 5.9908943e-39
2.1863081 0.83442849 -0.36511409 3.9738414e-39
2.2183836 0.86069316 -0.32864609 9.222821e-39
2.2607799 0.95016396 -0.34602416 5.8068715e-39
2.2926929 1.0178337 -0.3336598 6.1738408e-39
2.3176482 1.062264 -0.35380048 6.266035e-39
2.354095 1.1508645 -0.34912843 6.2656721e-39
2.3852947 1.2413636 -0.34660503 6.357509e-39
2.4040167 1.2881703 -0.36160898 6.3571488e-39
2.4301901 1.3493264 -0.34904969 6.0809235e-39
2.4619672 1.4524822 -0.34886539 6.172759e-39
2.3983245 1.5970606 -0.39491516 7.1861878e-39
2.4383323 1.5528641 -0.35229144 6.6330155e-39
2.3758209 1.662814 -0.36085075 7.0943537e-39
2.4104607 1.628863 -0.33188355 6.8174067e-39
2.3484392 1.7439592 -0.34754068 7.0950726e-39
2.367934 1.8486972 -0.3494477 7.0035958e-39
2.3943324 1.9123069 -0.35108331 7.0035972e-39
2.419215 1.9615235 -0.35017198 6.8192074e-39
2.4625056 2.0528429 -0.35083753 6.4507864e-39
2.4835143 2.1418324 -0.35781422 5.897977e-39
2.5097091 2.1769974 -0.33086258 4.1466229e-39
2.4900317 2.2272389 -0.35398218 5.623918e-39
2.5086915 2.2332141 -0.34896442 5.1625797e-39
2.6775777 -2.3550756 -0.25253269 1.4570131e-38
2.7307229 -2.3317428 -0.24252188 1.01451e-38
2.7372272 -2.253056 -0.2501851 8.1160797e-39
2.6952329 -2.1254392 -0.29104301 1.4475776e-38
2.716625 -2.1484258 -0.24773483 1.3093563e-38
2.6963892 -2.0744646 -0.29480103 1.3001725e-38
2.7248733 -2.0506818 -0.24719861 1.1618793e-38
2.6714325 -1.9396167 -0.29157913 1.042061e-38
2.7267911 -1.9518075 -0.24663748 8.2993891e-39
2.5730321 -1.8193047 -0.29293653 7.1937562e-39
2.6751442 -1.8397282 -0.2713443 9.4990071e-39
2.7115083 -1.8693582 -0.2324473 8.0228008e-39
2.4948983 -1.7722766 -0.29540306 7.3781531e-39
2.5237565 -1.7792807 -0.29415408 7.6547358e-39
2.644954 -1.7493 -0.25205922 1.263367e-38
2.5974336 -1.6697329 -0.29767838 8.7596638e-39
2.6428614 -1.647082 -0.25061786 1.42914e-38
2.675781 -1.5957768 -0.23936744 1.5121155e-38
2.7517037 -1.5667778 -0.25567415 1.1155298e-38
2.8196034 -1.5504141 -0.2290123 8.942246e-39
2.7625949 -1.4536492 -0.25704092 5.7143158e-39
2.8095038 -1.4792165 -0.2094219 6.6395371e-39
2.6468487 -1.3335813 -0.2519075 1.5483062e-38
2.7120557 -1.392898 -0.27521434 9.3066887e-39
2.6551154 -1.2580274 -0.2412824 1.7881944e-38
2.7168229 -1.2191999 -0.26348394 1.6035868e-38
1.2752852 -1.1141484 -0.26904985 1.1893578e-38
1.3007838 -1.1010034 -0.2683444 1.0972706e-38
2.7561753 -1.1543077 -0.24777594 1.5761812e-38
1.1918874 -1.0245714 -0.29210103 1.2170527e-38
1.2369955 -1.0714595 -0.28152972 1.1986494e-38
2.694098 -1.0103581 -0.27830896 1.1976742e-38
2.7332942 -1.0539727 -0.24962895 1.7605718e-38
1.1187786 -0.92746335 -0.25569737 4.606892e-39
2.6455107 -0.94470912 -0.25330758 1.4559651e-38
1.1244633 -0.84328574 -0.24853887 3.5912996e-39
2.5996311 -0.87095362 -0.21415061 4.7945217e-39
2.6323822 -0.8494271 -0.24944943 1.3454399e-38
1.1681973 -0.7907933 -0.25966504 4.6947646e-39
1.2064859 -0.785716 -0.23446177 1.8439112e-39
2.6310375 -0.75096095 -0.24612759 1.3085252e-38
2.5874822 -0.63304597 -0.24958225 1.2899422e-38
2.6089957 -0.68146908 -0.24672669 1.3084891e-38
2.5751393 -0.55004501 -0.24970925 1.1977468e-38
2.5547497 -0.44970834 -0.25001913 1.031867e-38
2.5271981 -0.34975874 -0.25061461 8.8435442e-39
2.4906421 -0.22375283 -0.24618827 7.2765786e-39
2.5070202 -0.27156025 -0.2521238 7.7382756e-39
2.3961546 -0.10527539 -0.2013467 7.8268713e-39
2.4518073 -0.15010878 -0.25052387 5.8943686e-39
2.3822145 -0.03292945 -0.24207264 5.2497181e-39
2.4109735 -0.074967496 -0.26278031 5.2497209e-39
2.2986269 0.079527177 -0.2077982 1.0145093e-39
2.3431635 0.047998454 -0.25334829 3.5019766e-39
2.2881558 0.14078517 -0.26016372 3.5967044e-39
2.3043513 0.15842444 -0.2432588 1.3836519e-39
2.2978103 0.22044089 -0.29518253 1.5684005e-39
2.3332484 0.2390568 -0.24959791 1.8442671e-39
2.4167318 0.29091832 -0.24286227 3.1339171e-39
2.4590096 0.32027668 -0.23368734 3.1335556e-39
2.550504 0.36527419 -0.26060164 9.1222848e-39
2.4988489 0.49855766 -0.20366687 4.8813041e-39
2.5598376 0.45973456 -0.24658504 6.5411744e-39
2.6163912 0.44409323 -0.257875 8.1081315e-39
2.3984694 0.59785366 -0.24722785 4.6068794e-39
2.446506 0.55274385 -0.24851613 4.6983548e-39
2.5064163 0.50505096 -0.26456317 4.7909077e-39
2.3781323 0.65124846 -0.2499094 4.6068794e-39
2.4004526 0.60013264 -0.2620247 4.699075e-39
2.2929969 0.78692019 -0.29710236 5.8986972e-39
2.3341281 0.74933118 -0.25076777 4.6990764e-39
2.2813618 0.85349321 -0.29316774 5.7143032e-39
2.3143342 0.84953821 -0.24280792 4.514325e-39
2.2858412 0.94675499 -0.28377318 5.7132256e-39
2.3140795 0.94844317 -0.23511678 4.3299338e-39
2.29476 1.0173842 -0.28880259 6.0816465e-39
2.332396 1.0524544 -0.24672233 4.6987135e-39
2.3589709 1.1502633 -0.24963275 4.8827446e-39
2.3810248 1.2485595 -0.24800688 4.8823859e-39
2.4009545 1.2959805 -0.29193169 5.9887306e-39
2.3938313 1.327364 -0.22340815 4.5132446e-39
2.4149048 1.3593071 -0.25387505 5.0667772e-39
2.3865428 1.4476198 -0.21696883 4.6050787e-39
2.4267855 1.447883 -0.26560923 5.3430025e-39
2.3811905 1.5516429 -0.22194238 5.0656968e-39
2.4183187 1.5447109 -0.27069575 5.9876502e-39
2.3923161 1.6601492 -0.24395071 5.8961735e-39
2.4082227 1.6500773 -0.25970897 6.0805647e-39
2.3767622 1.7551633 -0.25388929 6.4504263e-39
2.4058003 1.7194715 -0.23291489 5.896535e-39
2.3796175 1.8463382 -0.25084653 6.542982e-39
2.4017656 1.8958006 -0.2428951 6.5426219e-39
2.3969758 1.906698 -0.27255341 6.8192088e-39
2.4235559 1.9487096 -0.24973591 6.358232e-39
2.47734 2.0480795 -0.25771058 6.1742023e-39
2.507056 2.0849748 -0.21865566 5.7132284e-39
2.46591 2.171613 -0.24206765 5.9919775e-39
2.5195014 2.1462867 -0.25069296 4.515404e-39
2.4649324 2.2147443 -0.27682841 5.5320825e-39
2.513329 2.2719188 -0.29420242 2.3974339e-39
2.6987183 -2.4010367 -0.1732361 1.5307695e-38
2.7190251 -2.4088228 -0.12417812 1.5399533e-38
2.6943281 -2.3827641 -0.18720964 1.539989e-38
2.7638395 -2.3694761 -0.15182725 1.2726581e-38
2.8089757 -2.3165312 -0.14119299 1.005327e-38
2.7815416 -2.2333193 -0.16077727 1.5031832e-38
2.8147109 -2.2812965 -0.14227165 9.9610755e-39
2.7385373 -2.1445911 -0.14882337 1.5676121e-38
2.7441218 -2.0431662 -0.15182623 1.2355635e-38
2.7843661 -1.9550126 -0.15721777 1.4844905e-38
2.8056934 -1.9631591 -0.12909336 1.1984315e-38
2.691381 -1.8115432 -0.18940075 1.0697917e-38
2.7524242 -1.8593737 -0.14872402 1.6230367e-38
2.6743333 -1.7480553 -0.15450105 1.2818785e-38
2.7050586 -1.7896652 -0.11915901 1.4478656e-38
2.6676931 -1.6503347 -0.15056781 1.4752378e-38
2.702939 -1.6052742 -0.11189645 1.6227863e-38
2.6876187 -1.5975831 -0.18098278 1.4936764e-38
2.7465837 -1.5825731 -0.14981972 1.3736776e-38
2.8579607 -1.5466423 -0.14838076 1.2168e-38
2.902178 -1.5070142 -0.10760774 1.225838e-38
2.7764263 -1.4165689 -0.16130386 1.4103063e-38
2.8564909 -1.4751835 -0.16247499 1.0507035e-38
2.9028492 -1.4946976 -0.11260884 1.2257655e-38
2.6472218 -1.327637 -0.15192901 2.1476489e-38
2.7201636 -1.3809733 -0.14845346 1.6130251e-38
2.6570435 -1.2777253 -0.15503788 1.4285222e-38
2.7408593 -1.2388533 -0.14952806 9.7683689e-39
2.6899643 -1.121388 -0.1179303 5.7146857e-39
2.7357414 -1.1504922 -0.16082466 8.3883422e-39
2.6732354 -1.0477943 -0.1254355 6.8221207e-39
2.7314835 -1.056095 -0.17213611 1.5951259e-38
1.1510739 -0.91153651 -0.18068214 2.1212156e-39
1.2131897 -0.9079352 -0.16345596 2.9513364e-39
2.5992434 -0.92255974 -0.12827392 8.02167e-39
2.6121008 -0.94526964 -0.15102096 1.0969434e-38
1.1678677 -0.85369354 -0.18319181 2.4899995e-39
1.2053593 -0.8750577 -0.16336177 2.8587778e-39
2.5999987 -0.89910942 -0.11626205 8.3068651e-39
2.6186304 -0.85079437 -0.14997438 4.4307544e-39
1.1965652 -0.79849184 -0.19276424 1.8435511e-39
1.205284 -0.79681575 -0.19426548 2.0275822e-39
2.6533091 -0.75295174 -0.15057313 5.0692771e-39
2.5823812 -0.61809111 -0.15327653 1.8151665e-38
2.6339202 -0.67111403 -0.14963076 1.067842e-38
2.577934 -0.55817962 -0.15772152 1.4287764e-38
2.6429231 -0.53496379 -0.13307565 5.5302945e-39
2.7359707 -0.53544277 -0.11730772 2.9488112e-39
2.5636394 -0.45040935 -0.18750806 9.402141e-39
2.6526372 -0.44691962 -0.1443792 2.3967501e-39
2.7156999 -0.47968188 -0.11273258 2.3960102e-39
2.558002 -0.34420231 -0.16864836 8.6653144e-39
2.6280279 -0.35963193 -0.12120511 2.6726139e-39
2.4961095 -0.21215527 -0.19481687 2.2489541e-38
2.5389967 -0.25463009 -0.15384248 1.3548753e-38
2.6276481 -0.21260108 -0.12866732 7.8315404e-39
2.3954821 -0.10567872 -0.19394377 1.308308e-38
2.4571431 -0.14110236 -0.17871864 1.9171589e-38
2.5502665 -0.1401121 -0.13998786 8.0166646e-39
2.6300118 -0.17503949 -0.12859409 6.3571404e-39
2.2774901 -0.015030614 -0.13517508 2.3970808e-39
2.3516152 -0.04853237 -0.16535681 1.2349848e-38
2.4504733 -0.077252954 -0.13961104 8.2936144e-39
2.5226061 -0.083136678 -0.11141513 7.2801827e-39
2.2921093 0.048887953 -0.15085702 1.3829316e-39
2.3065755 0.053065702 -0.14389668 2.3963563e-39
2.2989788 0.10768241 -0.17568348 1.107065e-39
2.3112886 0.15302546 -0.14835565 2.3981598e-39
2.3593683 0.23317257 -0.15595962 6.2703678e-39
2.4154735 0.27943602 -0.1375901 3.0424446e-39
2.4559078 0.33113936 -0.15648428 1.8424637e-39
2.5340278 0.3748835 -0.13607854 8.7534981e-39
2.3889408 0.47942495 -0.13710728 1.5391209e-38
2.4379189 0.45419928 -0.13989399 1.115094e-38
2.5461988 0.42659515 -0.15935884 1.0504485e-38
2.6009715 0.44388613 -0.19885667 7.6457156e-39
2.3748794 0.55327761 -0.14335877 1.32718e-38
2.4387252 0.54731339 -0.15754305 4.2380955e-39
2.3703911 0.65136635 -0.1555659 1.0505579e-38
2.4493549 0.64473838 -0.11034318 5.8990672e-39
2.5060163 0.69160187 -0.1012135 1.9353782e-39
2.3605497 0.74724877 -0.15882705 9.0304564e-39
2.4162657 0.76445222 -0.11041782 1.6039114e-38
2.5248816 0.71866333 -0.10197544 3.5945422e-39
2.3454049 0.85565639 -0.16101445 6.8181256e-39
2.4171011 0.84298664 -0.11683203 1.7973048e-38
2.3330748 0.94672853 -0.14634435 9.306323e-39
2.425689 0.90304071 -0.10075164 1.3738919e-38
2.3357828 1.0485086 -0.14856721 7.3712966e-39
2.3519979 1.150968 -0.14939906 6.4486242e-39
2.2908797 1.2683961 -0.10243942 1.5299735e-38
2.363236 1.2480735 -0.1519997 5.1578896e-39
2.276233 1.3521757 -0.10288536 4.879858e-39
2.3822083 1.3569307 -0.15067381 4.5118013e-39
2.4023457 1.3609035 -0.18527628 4.4203287e-39
2.2860627 1.4336247 -0.10346153 5.0642562e-39
2.3582151 1.4509344 -0.15275209 4.5121614e-39
2.299902 1.5040292 -0.10284287 4.7887497e-39
2.3427842 1.5474313 -0.15019481 4.6969142e-39
2.3587844 1.6531876 -0.14781068 4.9734997e-39
2.2929604 1.7459294 -0.10253245 8.3858142e-39
2.3544669 1.7454418 -0.15282638 5.7110634e-39
2.3689375 1.8480307 -0.15019354 5.7125025e-39
2.3892813 1.9198773 -0.14127348 5.5281126e-39
2.418741 1.9643891 -0.15696862 5.4362785e-39
2.4642029 2.0652392 -0.13359725 5.4370002e-39
2.5113811 2.0842056 -0.17131765 4.7912707e-39
2.3818529 2.1375387 -0.13279764 6.6362707e-39
2.4380484 2.133158 -0.15882629 5.9916173e-39
2.5271521 2.1231432 -0.17801782 4.0544273e-39
2.7545314 -2.4248397 -0.045494702 1.5768317e-38
2.778223 -2.3825743 -0.059594899 1.2449995e-38
2.8215709 -2.3337042 -0.046116743 8.9458418e-39
2.7820268 -2.2173188 -0.070126384 1.4293553e-38
2.8327684 -2.2677491 -0.040792231 8.2997577e-39
2.7567487 -2.1435132 -0.053100269 1.6044547e-38
2.8018916 -2.1977501 -0.010087376 1.3554186e-38
2.7577412 -2.0489881 -0.054137524 1.1986857e-38
2.8039324 -2.0203145 -0.012812833 4.8867145e-39
2.7857578 -1.9854251 -0.068745755 9.9560224e-39
2.8116889 -1.9485111 -0.046672426 6.0845318e-39
2.7574735 -1.8405784 -0.055085186 1.3185022e-38
2.8072155 -1.8915234 -0.037176393 5.1622154e-39
2.6861057 -1.7221354 -0.058385212 1.1896472e-38
2.7143359 -1.7700353 -0.045736507 1.3832933e-38
2.6793535 -1.6722147 -0.05664051 1.1248944e-38
2.7088349 -1.6290712 -0.046308409 1.8994093e-38
2.7530015 -1.5812806 -0.051243655 1.4105916e-38
2.8597066 -1.5552595 -0.053873174 1.3182512e-38
2.9098287 -1.5185033 -0.043304343 1.2720082e-38
2.7869129 -1.4085224 -0.052234985 1.5760356e-38
2.8562684 -1.4506191 -0.051828947 1.4562182e-38
2.9123883 -1.4919628 -0.050111044 1.2718993e-38
2.6708405 -1.3268791 -0.049704555 2.221404e-38
2.7329011 -1.3773395 -0.056152679 1.8065243e-38
2.6695781 -1.2812309 -0.051511124 1.2902286e-38
2.7175937 -1.2382711 -0.052922402 7.6475149e-39
2.6872954 -1.1285634 -0.048638582 4.6072423e-39
2.7080557 -1.1828688 -0.051542025 4.8823831e-39
2.6791375 -1.0523981 -0.050795194 5.9916215e-39
2.6210063 -0.9386996 -0.047647268 1.1060183e-38
2.703968 -0.90190363 -0.040942997 3.8689444e-39
2.6351526 -0.85002667 -0.073822245 1.0155443e-38
2.7183576 -0.85026944 -0.026619539 3.593082e-39
2.6769779 -0.74261642 -0.066657864 8.3864854e-39
2.7145479 -0.7648257 -0.040632289 4.5139523e-39
2.5835094 -0.61549312 -0.051027671 1.8243872e-38
2.642942 -0.66967666 -0.051813088 1.1229433e-38
2.5849729 -0.58720821 -0.05348618 9.5825385e-39
2.6396003 -0.57384193 -0.053121302 7.8326334e-39
2.7573745 -0.54347742 -0.049804427 3.4087006e-39
2.6921237 -0.41237578 -0.088005297 2.7640696e-39
2.7375567 -0.45275277 -0.048577718 3.593459e-39
2.6615462 -0.3495028 -0.051738001 4.0544343e-39
2.700525 -0.39623201 -0.031150704 3.9622373e-39
2.5542893 -0.26055858 -0.052753847 1.1796674e-38
2.6496744 -0.2210632 -0.049421482 6.9099485e-39
2.5879436 -0.10981243 -0.072865888 6.1723918e-39
2.6432521 -0.15561624 -0.048176505 5.5273826e-39
2.2986107 -0.0056505608 -0.099469014 2.7658661e-39
2.3521652 -0.021125045 -0.091497317 3.8707689e-39
2.4614561 -0.026517073 -0.073247947 5.989088e-39
2.5476265 -0.057450745 -0.042967569 6.7252041e-39
2.2976782 0.033473134 -0.096030124 2.3967234e-39
2.3303168 0.055505544 -0.080465883 3.779295e-39
2.4567966 0.060391489 -0.043586951 1.2812984e-38
2.5207167 0.031706031 -0.022277223 9.5836119e-39
2.3638358 0.15137863 -0.052839104 1.3001721e-38
2.401427 0.1067872 -0.015476879 1.7518214e-38
2.3772783 0.21755126 -0.053900257 1.1894284e-38
2.4450562 0.2566582 -0.056852039 9.862731e-39
2.5238712 0.28508815 -0.042927586 1.2165084e-38
2.4777677 0.30310908 -0.096488684 9.0300892e-39
2.5521779 0.34974337 -0.050886799 1.2993036e-38
2.4553988 0.45469561 -0.051487684 9.1237296e-39
2.553618 0.41463622 -0.052824311 1.25317e-38
2.4817553 0.53664643 -0.073926911 2.9498846e-39
2.5273447 0.55642992 -0.039374713 1.5669614e-39
2.4788713 0.63787419 -0.095012181 7.7451364e-39
2.5521545 0.63675815 -0.069390625 4.1487921e-39
2.6326194 0.66219974 -0.036188144 1.3822128e-39
2.4630914 0.78262216 -0.060701016 9.6772523e-39
2.5521331 0.76567149 -0.06701269 6.359667e-39
2.6493835 0.75251734 -0.040902659 3.5012521e-39
2.4629292 0.8342036 -0.04794142 9.12481e-39
2.512615 0.88274115 -0.058618758 4.8852656e-39
2.612946 0.80082214 -0.021897804 4.4213881e-39
2.3658972 0.96670395 -0.094966419 1.5578138e-38
2.4609506 0.96956313 -0.074175201 3.1353605e-39
2.5248601 0.9520759 -0.046919633 2.8576932e-39
2.339906 1.0566082 -0.091384344 1.6775589e-38
2.4663925 1.0317074 -0.056170247 5.9930621e-39
2.5096145 1.0719402 -0.035214201 1.7509841e-39
2.3599784 1.1576339 -0.059374742 1.3639497e-38
2.4437146 1.1376538 -0.040426169 9.3070222e-39
2.5120115 1.1215918 -0.036414742 2.9480755e-39
2.2909434 1.2841417 -0.097363874 1.7235841e-38
2.343971 1.2478919 -0.079914361 1.4470343e-38
2.4233489 1.2557199 -0.034993641 5.4359198e-39
2.2766798 1.3583409 -0.08290112 1.5759996e-38
2.3510914 1.3594855 -0.063986853 1.0782532e-38
2.4638863 1.3525068 -0.037294347 4.3302953e-39
2.2802062 1.4520481 -0.069884419 1.3639858e-38
2.3302808 1.4469447 -0.026698766 9.5846993e-39
2.4563925 1.4348258 -0.027562484 5.1607749e-39
2.514461 1.4497076 -0.013481983 3.7767558e-39
2.2640653 1.5593404 -0.069015242 1.1153118e-38
2.3200781 1.5548928 -0.03919081 7.3741888e-39
2.2406402 1.6502501 -0.062176928 1.1336065e-38
2.341265 1.6450827 -0.024529543 4.5172215e-39
2.2485273 1.7491288 -0.04771528 1.2811908e-38
2.3661895 1.7572926 -0.019416895 3.0424488e-39
2.4021847 1.7556853 -0.0043620253 1.8446273e-39
2.2692003 1.8515334 -0.034711462 1.2995209e-38
2.3398275 1.8567438 -0.082152635 5.342641e-39
2.2851052 1.9145529 -0.03402663 1.2718991e-38
2.3521378 1.950724 -0.061898787 7.2794653e-39
2.4100728 1.9861547 -0.090795457 4.0526252e-39
2.3860788 2.0376513 -0.028180741 6.2681972e-39
2.4207482 2.0715899 -0.06747181 5.9912544e-39
2.3842962 2.1329374 -0.091362402 1.1509666e-38
2.4206977 2.1429136 -0.051317483 6.2685657e-39
2.4611559 2.2177665 -0.024697796 6.9153729e-39
2.7896204 -2.4432936 0.042813249 1.613746e-38
2.8124075 -2.4284151 0.090223551 1.6045264e-38
2.9069924 -2.4059963 0.096476033 1.9549411e-38
2.7921264 -2.3881264 0.027213868 1.2818417e-38
2.8366899 -2.3547158 0.047341377 9.7759612e-39
2.9304094 -2.359592 0.092984885 1.8261192e-38
2.849514 -2.2575405 0.043839868 8.761089e-39
2.9133389 -2.2844613 0.093191393 1.7891333e-38
2.7884712 -2.1342406 0.021290891 1.6320772e-38
2.8150082 -2.1517389 0.066933945 1.6229297e-38
2.7845702 -2.0646994 0.03243823 1.1896822e-38
2.8082843 -2.0359795 0.054575916 7.7465783e-39
2.8138518 -1.9513245 0.047950663 6.2707237e-39
2.7687383 -1.8395337 0.052360442 1.1434394e-38
2.808217 -1.8883079 0.045933917 5.9015811e-39
2.6914487 -1.7100196 0.043082889 1.1619884e-38
2.722033 -1.7632474 0.051336553 1.4386469e-38
2.6903861 -1.6802047 0.042987753 9.682339e-39
2.7169659 -1.6374636 0.051160943 1.7795552e-38
2.7561207 -1.5800159 0.049332783 1.4382503e-38
2.8558416 -1.5556527 0.048583563 1.3551295e-38
2.915782 -1.5217471 0.048947707 1.3089226e-38
2.791172 -1.4041317 0.032243084 1.6038385e-38
2.8605828 -1.4432015 0.04777813 1.4839484e-38
2.9219165 -1.4874924 0.051301055 1.3180329e-38
2.6823206 -1.3210272 0.045665093 2.2398435e-38
2.7267029 -1.3616096 0.055831585 1.9725486e-38
2.6856682 -1.2601967 0.053142313 9.6750915e-39
2.7024763 -1.2238189 0.016865948 5.8947259e-39
2.6789448 -1.1445687 0.052486796 6.7259229e-39
2.702143 -1.18699 0.014903569 5.0653296e-39
2.6656187 -1.0494787 0.050650563 5.8032506e-39
2.6515815 -0.94167817 0.048793167 9.1230023e-39
2.7027638 -0.90237641 0.056219142 4.4210392e-39
2.6940391 -0.85415423 0.090282895 5.5270238e-39
2.7145681 -0.85149908 0.044941071 4.1444551e-39
2.6865559 -0.72515661 0.057024591 4.6054291e-39
2.7104485 -0.77011389 0.043103322 4.2366507e-39
2.5919969 -0.61345679 0.047871035 1.7051459e-38
2.6521413 -0.66695023 0.050489176 4.6050675e-39
2.5918419 -0.5942753 0.033220783 9.215921e-39
2.6450646 -0.58579224 0.05312838 5.8050526e-39
2.7424302 -0.54454559 0.048572905 3.408339e-39
2.6929841 -0.40844244 0.065002561 3.500536e-39
2.7304025 -0.4573161 0.047651269 3.4083404e-39
2.6601243 -0.35176915 0.049282324 3.5008962e-39
2.5613267 -0.26563877 0.048631776 1.1704118e-38
2.6383634 -0.22820839 0.049984563 5.8950791e-39
2.6365798 -0.14923939 0.049429398 5.5255833e-39
2.5767376 -0.041851137 0.047511272 5.9872789e-39
2.6068506 -0.089825682 0.056290157 5.8940043e-39
2.4387739 0.08930406 0.051102441 1.7240902e-38
2.5420818 0.039933797 0.048894975 6.3571376e-39
2.3800142 0.16612042 0.047214057 1.4385013e-38
2.4044652 0.11680337 0.053381778 1.7426741e-38
2.3803113 0.21886045 0.053723052 4.8863474e-39
2.450835 0.2549352 0.046603523 1.1152738e-38
2.5149691 0.28664428 0.047350332 1.3086676e-38
2.2921162 0.39514458 0.097892128 4.7001624e-39
2.3353457 0.39447072 0.096357152 7.2801869e-39
2.4296451 0.39886916 0.09815982 1.5114275e-38
2.5299695 0.34946823 0.049555968 1.391499e-38
2.2952187 0.40163949 0.099351324 3.8707633e-39
2.368365 0.44076261 0.093024693 4.0537112e-39
2.4392898 0.45171148 0.047828633 1.032119e-38
2.5445578 0.4114686 0.039112203 1.3361458e-38
2.4644594 0.53716838 0.060228385 4.1451782e-39
2.5260053 0.57312334 0.027652895 3.5005332e-39
2.5613775 0.64064234 0.063455902 4.4214021e-39
2.6312487 0.66919965 0.024084343 2.7633339e-39
2.4603844 0.79098558 0.051603526 1.2903013e-38
2.5554311 0.78205138 0.055731364 6.2649364e-39
2.639811 0.75630891 0.045695942 4.6979862e-39
2.4477301 0.84864753 0.050470181 5.067496e-39
2.6103415 0.8008557 0.014478828 4.6979722e-39
2.4816241 0.94658428 0.052322321 2.2108804e-39
2.5044308 0.97057933 0.019512679 1.3814883e-39
2.4958935 1.0102184 0.016314449 1.4744014e-39
2.5202041 1.0543401 0.05201003 3.2246708e-39
2.3904581 1.1730922 0.045343168 1.0227908e-38
2.4404297 1.1474687 0.050539374 1.0505565e-38
2.5301902 1.1254361 0.050693613 3.5927219e-39
2.3989553 1.2019519 0.0052071162 4.8812929e-39
2.4337671 1.2518777 0.049917955 4.6054333e-39
