# .PCD v0.7 - Point Cloud Data file format
VERSION 0.7
FIELDS x y z rgb
SIZE 4 4 4 4
TYPE F F F F
COUNT 1 1 1 1
WIDTH 1043
HEIGHT 1
VIEWPOINT 0 0 0 1 0 0 0
POINTS 1043
DATA ascii
2.0269549 -0.17895934 -0.14688295 4.8769951e-39
2.1665473 -0.15035549 -0.1544905 9.3106614e-39
2.2240527 -0.11828642 -0.14701825 9.1269918e-39
2.2717371 -0.08498539 -0.14931226 9.2195462e-39
2.3489668 -0.035360321 -0.15060915 9.4042962e-39
2.3947122 0.010095445 -0.13747597 9.8652743e-39
2.4300034 0.05663114 -0.15252188 1.0049305e-38
2.4812353 0.1175665 -0.14566727 1.014186e-38
2.5225163 0.1678226 -0.15201399 1.0142221e-38
2.562041 0.25061113 -0.15020795 1.0050026e-38
2.5720248 0.35067233 -0.14971177 8.6667353e-39
2.5639758 0.4310568 -0.15131371 7.3774511e-39
2.6252642 0.48327535 -0.14825128 1.5677611e-38
2.6749556 0.52597791 -0.14852315 1.5586147e-38
2.7170143 0.57609934 -0.14975043 1.5493592e-38
2.760767 0.63938022 -0.14989996 1.5217363e-38
2.8089044 0.69033509 -0.15090907 1.5124446e-38
2.8577237 0.75184906 -0.15051371 1.4940051e-38
2.8877444 0.82354409 -0.14866355 1.4755299e-38
2.9208999 0.87374282 -0.14895165 1.4754936e-38
2.9605327 0.94976759 -0.14939331 1.4661658e-38
2.9829485 1.0175509 -0.14839536 1.4384703e-38
3.0449448 1.0724789 -0.15008044 1.0604672e-38
2.8857784 1.1873081 -0.15059163 1.1708488e-38
2.9336305 1.1504474 -0.14856684 1.254042e-38
3.0499182 1.124614 -0.15272006 3.1379094e-39
2.6951067 1.297842 -0.11079507 6.4356594e-40
2.7579613 1.2675326 -0.14119193 1.6573549e-39
2.8399811 1.2259135 -0.15192676 5.8972721e-39
2.5970471 1.3969117 -0.10965998 1.8367099e-40
2.6505651 1.3564469 -0.13487245 8.29039e-40
2.7362404 1.3356512 -0.17386287 2.2123336e-39
2.8113377 1.312889 -0.19326633 3.5945492e-39
2.2967629 1.4981874 -0.17086615 1.5680418e-39
2.3449254 1.4804373 -0.15143013 3.6913985e-40
2.4496241 1.4676888 -0.15033561 1.1985404e-39
2.5561647 1.4415379 -0.1437829 8.2939913e-40
2.6326773 1.423381 -0.17955804 1.9361068e-39
2.7389286 1.4069951 -0.19480211 4.4257504e-39
2.2509363 1.5453366 -0.14846888 3.6877972e-40
2.3143206 1.5079597 -0.13568573 0
2.2373655 1.6491555 -0.14958826 9.2194229e-41
2.2502198 1.7488263 -0.15015629 9.2194229e-41
2.2679648 1.8493257 -0.15023968 2.7658409e-40
2.268595 1.9555898 -0.14406493 3.6877972e-40
2.3036728 1.9569782 -0.19389534 2.7658409e-40
2.2560415 2.0137703 -0.16442229 1.8438846e-40
2.3022625 2.0087628 -0.19843873 2.7658409e-40
1.3656228 -1.1053602 -0.052716088 5.3476983e-39
1.383625 -1.0755429 -0.051167145 5.9930649e-39
1.4493755 -1.0396006 -0.051666752 8.1132014e-39
1.5277796 -1.0127459 -0.046851061 8.2053956e-39
1.06072 -0.9281953 -0.086070895 5.0714715e-39
1.1045263 -0.94621038 -0.092586756 5.4406128e-39
1.5763164 -0.98405707 -0.053078152 7.6518645e-39
1.6318771 -0.9361425 -0.050167486 7.3752776e-39
0.98234123 -0.85746551 -0.030866697 4.6205715e-40
1.0075778 -0.87793285 -0.058473215 1.3836519e-39
1.6787751 -0.86620134 -0.049525023 7.3749189e-39
1.7088352 -0.81611043 -0.053985171 7.1901675e-39
1.7271689 -0.75718755 -0.049999282 7.1905277e-39
1.6578233 -0.64715594 -0.051082056 8.3897897e-39
1.7027482 -0.69677895 -0.016769229 7.2830834e-39
1.5681924 -0.5395931 -0.051634949 7.6525834e-39
1.6228703 -0.54582077 -0.044072371 8.5745383e-39
1.7624227 -0.53905475 -0.038016677 5.5324426e-39
1.850926 -0.52371776 -0.052402448 7.099767e-39
1.886254 -0.4910939 -0.057250857 6.2692888e-39
1.926807 -0.44282222 -0.049372368 8.3901428e-39
1.9620576 -0.35099667 -0.051327635 5.623918e-39
1.966887 -0.24980618 -0.05107823 5.1629441e-39
1.9882666 -0.18762048 -0.037710186 4.7938028e-39
2.0272577 -0.16841894 -0.057681963 4.0562364e-39
2.1668417 -0.13625029 -0.043044843 9.0355136e-39
2.2164302 -0.11566239 -0.076364301 9.035515e-39
2.1929142 -0.094183549 -0.012106719 9.4046563e-39
2.2560406 -0.068698585 -0.045998827 9.6812432e-39
2.3299594 -0.023510093 -0.059377629 9.9578287e-39
2.3755033 0.027909085 -0.046030495 1.014222e-38
2.4210331 0.0769637 -0.055783339 1.0050024e-38
2.4741533 0.13237342 -0.046769645 1.0234416e-38
2.5138609 0.18022661 -0.058612689 1.0142221e-38
2.5477259 0.25015819 -0.050598256 9.9578301e-39
2.5444698 0.34925312 -0.051617183 5.5320895e-39
2.5511272 0.42502451 -0.053952705 4.1516928e-39
2.6456888 0.47834006 -0.057151496 1.577053e-38
2.7190599 0.49376965 -0.020601805 1.6047838e-38
2.6835635 0.51678282 -0.078935921 1.5862735e-38
2.7454982 0.55512834 -0.047326189 1.5954932e-38
2.8057873 0.5902788 -0.0099796616 1.5954932e-38
2.7716477 0.62768996 -0.07029897 1.5493953e-38
2.8327181 0.66231006 -0.037909061 1.5586145e-38
2.8755581 0.74075085 -0.056670044 1.5124806e-38
2.9064283 0.7820664 -0.028658224 1.5032607e-38
2.8968678 0.81504399 -0.09173207 1.4847854e-38
2.9271429 0.84987158 -0.048634216 1.5031525e-38
2.9719164 0.9483465 -0.053143058 1.4754214e-38
3.0041575 0.99174625 -0.01095778 1.4753129e-38
2.9879196 1.0144639 -0.066626221 1.4660928e-38
3.0421319 1.0666118 -0.043000285 9.1291848e-39
2.8969276 1.1921343 -0.081074268 1.2814831e-38
2.9294982 1.1505433 -0.047797769 1.2263472e-38
3.029804 1.1145986 -0.056312259 2.6769355e-39
2.6972983 1.2982488 -0.095967121 8.268782e-40
2.7499197 1.2689838 -0.090642847 2.3920347e-39
2.8645594 1.2378002 -0.055364914 9.7676711e-39
2.9054372 1.2495797 -0.014877987 1.1524803e-38
2.5941658 1.3947556 -0.087788142 2.7550649e-40
2.6463888 1.3550327 -0.085205249 6.4320721e-40
2.740957 1.3377846 -0.076532774 4.3256178e-39
2.8569198 1.3410736 -0.066746086 9.6675413e-39
2.9265807 1.3525108 -0.03025531 9.6761999e-39
2.2480755 1.4722663 -0.015780488 6.812718e-39
2.3501809 1.4754437 -0.053015832 2.4853093e-39
2.4473619 1.4708868 -0.058347993 3.1303172e-39
2.5491235 1.4497002 -0.069493406 1.8403043e-39
2.6424019 1.4528235 -0.055074234 5.4315954e-39
2.7484729 1.4575342 -0.056295563 8.2882082e-39
2.8492064 1.4570034 -0.057832599 9.1161682e-39
2.9669859 1.4525609 -0.035405982 9.0286683e-39
3.0013893 1.4891059 -0.010523185 7.7444329e-39
2.1559761 1.5473443 -0.0096041067 5.8918463e-39
2.2450316 1.5506716 -0.058598824 6.4356734e-40
2.3143075 1.5096364 -0.070867047 1.8367099e-40
2.5680192 1.5068078 -0.018661749 7.9183481e-39
2.6562507 1.5226113 -0.024038494 8.0109024e-39
2.7460151 1.5294228 -0.022390882 7.8279573e-39
2.8554525 1.5363368 -0.028637068 8.2889355e-39
2.9564457 1.5392493 -0.019943286 8.2010782e-39
3.0034974 1.5318863 -0.0069125351 7.8362698e-39
2.1773667 1.6442801 -0.022865381 1.3796862e-39
2.2106178 1.6455945 -0.064580679 9.1835496e-41
2.174109 1.7417426 -0.0064225458 1.1023847e-39
2.2236571 1.7528306 -0.055333305 1.8367099e-40
2.1971073 1.8140031 -0.0031557549 1.0109079e-39
2.2366419 1.8500599 -0.051570777 3.6770072e-40
2.2504458 1.9533924 -0.056825139 2.7586522e-40
2.2662287 2.0228875 -0.035751674 3.6734198e-40
2.3026824 2.0687754 -0.0057220464 5.5137171e-40
1.3736235 -1.1099011 0.023885962 4.0580454e-39
1.3823521 -1.0759453 0.029863404 5.6235635e-39
1.4525528 -1.0477512 0.033504922 8.6663752e-39
1.5502794 -1.0249792 0.049740706 9.4042976e-39
1.6042212 -1.0039479 0.082840763 9.5890504e-39
1.1629221 -0.90864366 0.077698052 7.2026741e-43
1.2188115 -0.91004992 0.069150329 2.7730576e-40
1.5952785 -0.99484503 0.010887592 8.6663724e-39
1.6305671 -0.94987571 0.049558278 9.2195476e-39
0.98590225 -0.86380506 0.048460212 7.3828531e-40
1.0403614 -0.87521821 0.06897299 1.8511153e-40
1.1249468 -0.89756435 0.085748531 7.2026741e-43
1.216276 -0.89330953 0.086158045 4.6133548e-40
1.6740483 -0.85243702 0.050170552 8.3897883e-39
1.7043839 -0.80549347 0.032031581 7.9288102e-39
1.674544 -0.74931955 0.089800514 5.1622238e-39
1.7254544 -0.75585276 0.039919827 7.560029e-39
1.6664618 -0.64714122 0.052358169 5.6242851e-39
1.7250555 -0.66112536 0.064322457 3.780374e-39
1.8127332 -0.62522918 0.098410472 1.1074238e-39
1.5899357 -0.56149912 0.0098936986 5.7171954e-39
1.6441954 -0.55642503 0.0381038 3.59634e-39
1.7380672 -0.54153103 0.059061226 3.1353633e-39
1.8373995 -0.51807076 0.04135526 6.8228227e-39
1.7790366 -0.47173786 0.08709912 2.8587778e-39
1.8720467 -0.4742026 0.063114986 6.7306271e-39
1.9245493 -0.43438789 0.040876035 8.4826972e-39
1.968834 -0.35009706 0.048712302 6.083457e-39
1.9639536 -0.24989283 0.047564905 5.249379e-39
2.0106726 -0.21394816 0.096335389 3.5001899e-39
1.9732766 -0.17389245 0.039241951 1.0786147e-38
2.0449359 -0.15065543 0.059576843 1.115529e-38
2.1372087 -0.12050863 0.050594725 9.3124593e-39
2.1809974 -0.089210249 0.050744563 9.6812418e-39
2.2480283 -0.047514085 0.049507014 9.865633e-39
2.311403 -0.0084998384 0.045199689 1.0050024e-38
2.3613381 0.032343697 0.048097499 1.014222e-38
2.417295 0.083591089 0.050779607 1.014222e-38
2.4681542 0.14264688 0.050322913 1.0142221e-38
2.5048766 0.1917326 0.043585792 1.0142224e-38
2.5304298 0.24969585 0.049047496 1.0142224e-38
2.5541365 0.35037959 0.049327057 7.376721e-39
2.5635209 0.41717327 0.044673085 3.7821928e-39
2.6398964 0.45132577 0.047044851 1.069868e-38
2.7523518 0.48272729 0.041830759 1.6323701e-38
2.8243344 0.4948658 0.063332871 1.6600292e-38
2.7857575 0.52399313 0.014211621 1.6324069e-38
2.843565 0.55522203 0.052638087 1.6324432e-38
2.9101446 0.55155391 0.093677007 1.6325511e-38
2.8656845 0.63373792 0.033421822 1.5863455e-38
2.9332139 0.66820049 0.067565247 1.5955291e-38
3.0053761 0.69933945 0.099741146 1.6047125e-38
2.9435799 0.75270587 0.046886452 1.5493588e-38
3.0077674 0.72742653 0.09324041 1.5862374e-38
2.9542823 0.84627718 0.048480842 1.5216277e-38
3.004396 0.89182419 0.094376162 1.5124439e-38
2.9854062 0.93175453 0.032141302 1.4938967e-38
3.0132208 0.96245617 0.065158918 1.4938604e-38
2.9722741 1.0968583 0.085667945 5.8104981e-39
3.037288 1.05576 0.05052061 8.4838154e-39
2.9327278 1.1452492 0.047611557 1.2263472e-38
3.0123365 1.1049112 0.021133529 3.1382752e-39
2.897923 1.2421082 0.0037174434 1.041881e-38
2.918051 1.2470825 0.050745979 1.0694682e-38
2.9469204 1.3484079 0.049342103 9.6808915e-39
2.2427413 1.4775412 0.011304995 5.6170643e-39
2.3503661 1.4815396 0.019970898 2.764057e-39
2.4385619 1.4876076 0.013238601 3.8700416e-39
2.5044622 1.4968914 0.0018230123 7.3716637e-39
2.9817469 1.4236555 0.047457192 8.9429733e-39
3.0126295 1.4755518 0.051169407 8.4819979e-39
2.0948398 1.5700607 0.012987274 6.6290456e-39
2.1463957 1.550279 0.024356278 4.8802223e-39
2.2507412 1.5479882 0.040631671 2.2105259e-39
2.3585591 1.5569844 0.065509498 3.6849413e-39
2.4431591 1.5367754 0.066674657 2.4914428e-39
2.5505164 1.5392711 0.056848306 1.290736e-39
2.6445918 1.5431532 0.054099496 3.7800138e-39
2.7510176 1.5626478 0.046732068 5.716122e-39
2.8458693 1.5782435 0.050144378 5.9005189e-39
2.9601443 1.5856391 0.048826732 6.915038e-39
3.0115221 1.5366533 0.051797491 7.7440784e-39
2.0755191 1.6538684 0.023940468 5.8936413e-39
2.1429398 1.6472666 0.052798081 1.9346593e-39
2.2397435 1.6398562 0.083532862 3.6878196e-39
2.3377509 1.6144218 0.088166878 3.4076342e-39
2.9319363 1.6009554 0.095614031 7.099432e-39
2.0737228 1.7381941 0.040093634 4.5128761e-39
2.1292088 1.7403442 0.07305868 1.0134275e-39
2.2135611 1.7128129 0.091789603 3.9647694e-39
2.0996938 1.8017268 0.051508993 5.8028918e-39
2.1347237 1.8505495 0.057133958 2.9470007e-39
2.2121079 1.876949 0.0015222118 8.268782e-40
2.1629825 1.923444 0.051842608 4.2362878e-39
2.2343116 1.9550472 0.0078259418 1.7477471e-39
2.2795818 2.0325291 0.0069407653 1.0112667e-39
2.3025267 2.0698931 0.0011210081 7.3540143e-40
1.4721006 -1.015202 0.1218068 6.546596e-39
1.5549613 -1.0169482 0.13641186 9.5894105e-39
1.6039675 -1.0033016 0.10881903 1.0141865e-38
1.0972537 -0.90023708 0.19893228 9.2267657e-40
1.1448162 -0.90318334 0.16106974 3.6950279e-40
1.4453235 -0.99219286 0.16183165 1.0695755e-38
1.5620955 -0.99031413 0.17616211 8.8518455e-39
1.6285532 -0.94770271 0.14827061 1.0510648e-38
0.9877156 -0.86698169 0.14752974 1.6602416e-39
1.0516381 -0.8811729 0.14833254 3.6950279e-40
1.1580906 -0.88647097 0.15024181 3.6950139e-40
1.2068849 -0.88508999 0.10916095 6.4536521e-40
1.6696854 -0.85160637 0.15049601 7.7447776e-39
1.6594951 -0.74960834 0.14959012 5.8072303e-39
1.7481949 -0.71330899 0.11900055 5.5424998e-40
1.8418521 -0.71915585 0.12085567 6.4644561e-40
1.6305076 -0.69403136 0.12915118 2.857696e-39
1.7703282 -0.66826594 0.10351534 6.4644561e-40
1.8493725 -0.64778793 0.11234332 7.3864124e-40
1.9310315 -0.67543715 0.12830544 5.5424998e-40
1.7480782 -0.56008703 0.11804476 1.0152281e-39
1.8540465 -0.55577624 0.12529582 1.1996194e-39
1.9566431 -0.5441699 0.13477044 1.1996194e-39
2.0391779 -0.55639583 0.17421801 1.0155883e-39
2.1249993 -0.55188322 0.19104004 7.3864124e-40
1.7956885 -0.43853989 0.12093679 4.9792717e-39
1.8756828 -0.43240887 0.14402212 8.9440369e-39
1.9311817 -0.41585571 0.15162802 8.5752572e-39
2.038898 -0.40614301 0.18577693 7.7458566e-39
2.1206572 -0.40527663 0.1937051 1.0419166e-38
1.9875039 -0.34632668 0.12671456 9.405015e-39
2.03724 -0.35762164 0.15735029 1.1341119e-38
2.109235 -0.38940185 0.19284177 1.0326608e-38
1.9844025 -0.27866557 0.14135566 8.2064788e-39
2.0485973 -0.23647262 0.15273423 8.3890638e-39
2.1116009 -0.20623657 0.17903259 1.1612296e-38
2.08848 -0.18731225 0.11856521 1.022757e-38
2.1413136 -0.1479183 0.15180914 9.5872413e-39
2.2078528 -0.10742894 0.1883675 9.496489e-39
2.1858339 -0.092143796 0.12303311 9.6812404e-39
2.2515259 -0.058797505 0.14885889 9.773436e-39
2.3201864 -0.01499327 0.16031258 9.9578273e-39
2.3684912 0.022423701 0.14487144 1.0050023e-38
2.4293962 0.071789533 0.15302651 1.0142219e-38
2.472255 0.14416569 0.14907925 9.9581916e-39
2.5080981 0.19318207 0.15584287 1.0881241e-38
2.532645 0.24937651 0.14946474 1.0604292e-38
2.5721104 0.34665298 0.14144997 7.8377033e-39
2.6181951 0.364732 0.18670225 1.0141868e-38
2.5811796 0.4128522 0.12864891 4.4272119e-39
2.6412168 0.4245947 0.16773394 8.2079418e-39
2.7418697 0.45909613 0.1561292 1.3372712e-38
2.8491094 0.48562106 0.13837259 1.6600287e-38
2.9285939 0.49697387 0.17333305 1.67854e-38
2.8934126 0.53389114 0.10603797 1.6232592e-38
2.9524992 0.54860324 0.11892256 1.6509182e-38
3.04462 0.55676413 0.1673058 1.6877606e-38
3.1122258 0.5947445 0.18710847 1.6693933e-38
2.9708827 0.63987589 0.10785423 1.6232235e-38
3.0448003 0.65743083 0.12438311 1.6969439e-38
3.1505585 0.66879517 0.15546136 1.7061989e-38
3.2425573 0.67260981 0.17248736 1.4757101e-38
3.3475871 0.6809898 0.17664641 1.1529894e-38
3.4108987 0.69233853 0.18898545 7.6565995e-39
2.993118 0.78405315 0.10918945 1.5585784e-38
3.0499203 0.7597453 0.14227971 1.5770897e-38
3.1400783 0.7358585 0.17669623 1.5954928e-38
3.2052658 0.70654154 0.19885734 1.5954928e-38
3.3621037 0.7017895 0.19206591 1.2635882e-38
3.41834 0.70255357 0.18906067 3.6925448e-39
2.9913218 0.83095676 0.11619791 1.5493225e-38
3.0195704 0.85082018 0.15976296 1.5493225e-38
3.0329063 0.94778597 0.14930706 1.5123357e-38
2.9687443 1.0921029 0.15289424 7.2863512e-39
3.0399823 1.0495751 0.14872377 7.1012383e-39
3.1045208 1.047479 0.1641268 1.4384336e-38
2.8976879 1.1669836 0.18813336 1.3369087e-38
2.9217684 1.1455785 0.1470937 1.3185064e-38
2.9335403 1.2512782 0.14935747 1.0049673e-38
2.9519846 1.3503125 0.14989167 8.6667353e-39
2.977083 1.4497676 0.15378247 6.1771072e-39
3.004885 1.489719 0.11055815 8.2054125e-39
2.3916831 1.5942671 0.11268248 4.3306793e-39
2.4352551 1.5868853 0.12713748 3.9637016e-39
2.5542572 1.5820534 0.11775137 1.5673271e-39
2.6541598 1.5627261 0.12749542 3.2264813e-39
2.7510569 1.5721003 0.13973473 6.6369923e-39
2.8376215 1.590695 0.13616925 7.3749217e-39
2.9861701 1.562391 0.15824458 7.4678586e-39
3.0045464 1.54606 0.12621686 7.4674971e-39
2.2625983 1.6602546 0.13938117 4.6097731e-39
2.3547707 1.6352969 0.14957319 5.5284924e-39
2.4420643 1.6223487 0.17405251 4.7905784e-39
2.5533333 1.6254232 0.16556358 1.9357579e-39
2.6417704 1.6342553 0.16858916 1.9353894e-39
2.7575748 1.6455845 0.16920628 5.3458878e-39
2.8513234 1.6311107 0.1789744 8.2957766e-39
2.9370461 1.6062135 0.15470144 7.7444413e-39
2.1584923 1.7625642 0.13238673 8.2975787e-40
2.2468522 1.7474363 0.15739611 3.1346472e-39
2.3083799 1.7370698 0.19154339 8.2061187e-39
2.7927899 1.7115285 0.18434927 3.5023521e-39
2.8493097 1.7274059 0.1893806 4.9771249e-39
2.1474953 1.8433231 0.15341015 2.7658409e-40
2.2325263 1.8027061 0.19566722 3.6877972e-40
2.3054364 1.803658 0.19790971 5.5245211e-40
2.1555042 1.9177009 0.15311709 2.7658409e-40
1.4558166 -1.0021954 0.27000165 1.106418e-38
1.5228689 -1.0044948 0.25236365 1.106382e-38
1.0670798 -0.91429466 0.25218031 1.7524386e-39
1.1584004 -0.92790931 0.24772608 1.3836547e-39
1.2101157 -0.93961376 0.28902054 1.7524372e-39
1.4481214 -0.99424064 0.24583247 1.1156016e-38
1.5708463 -0.96285909 0.25471884 1.0419173e-38
1.6239406 -0.92191511 0.23231664 1.0142227e-38
0.9983477 -0.87852901 0.20553298 2.5821979e-39
1.0195192 -0.88820803 0.2267659 2.2134154e-39
1.1829985 -0.88064635 0.23253539 1.5676844e-39
1.2078257 -0.89121425 0.28718603 2.0286598e-39
1.5983613 -0.89930707 0.2898621 1.1064902e-38
1.653206 -0.85220426 0.25208771 9.4050178e-39
1.6624757 -0.75560856 0.24758163 7.2834407e-39
1.5928373 -0.68180323 0.27667794 2.8598582e-39
1.6177974 -0.6947825 0.25934568 5.0729148e-39
2.1336353 -0.60239851 0.20932537 1.568762e-39
2.2551646 -0.60254884 0.23426208 1.3840134e-39
2.0833139 -0.50103104 0.29605976 9.7741591e-39
2.1501563 -0.57884032 0.20730971 1.291815e-39
2.2376864 -0.58385491 0.22441801 1.0152281e-39
1.889665 -0.45418033 0.20911428 9.4968547e-39
1.9466438 -0.43073386 0.23925316 9.9585503e-39
2.0409801 -0.44605431 0.26246956 8.5756159e-39
2.1561313 -0.42054272 0.23937206 9.2206238e-39
2.2450521 -0.42655802 0.26669022 1.014222e-38
2.3121464 -0.43118837 0.29196 9.8652715e-39
2.0728104 -0.34481728 0.20720521 1.1432233e-38
2.1441338 -0.37556636 0.22350426 1.005038e-38
2.2261178 -0.39261821 0.25654852 1.0418807e-38
1.9928505 -0.29124376 0.20414066 2.1300045e-38
2.0641921 -0.25602219 0.21142159 1.1250365e-38
2.1456885 -0.22151826 0.23130973 1.0415556e-38
2.2384419 -0.22774506 0.27603152 1.1611575e-38
2.3246267 -0.25064862 0.29111874 1.0967285e-38
2.1689932 -0.16849191 0.23056158 9.40285e-39
2.230438 -0.13511191 0.26271379 9.3124551e-39
2.2727065 -0.08278393 0.23788042 9.6808802e-39
2.3437879 -0.037567984 0.25352716 9.773436e-39
2.4050989 -0.0055930107 0.2939997 9.7734332e-39
2.3868806 0.010268364 0.22596608 9.9578273e-39
2.4451742 0.054890916 0.25307456 1.0142219e-38
2.4839213 0.12563798 0.23969962 9.9581888e-39
2.5191247 0.17067538 0.25890779 1.2357819e-38
2.5649981 0.23672451 0.24421182 1.7708429e-38
2.622143 0.28124326 0.2658858 9.9600147e-39
2.5945444 0.3097887 0.2105061 9.8660044e-39
2.6411936 0.35201713 0.25228542 9.9571154e-39
2.6690977 0.41671517 0.24761648 9.4975848e-39
2.7456808 0.44844067 0.25142056 1.1989047e-38
2.8566365 0.47364998 0.2586661 1.7061616e-38
2.9298306 0.49095798 0.25973418 1.7522603e-38
2.9795306 0.5037626 0.23477058 1.7522605e-38
3.0757706 0.53899825 0.23626544 1.733894e-38
3.122611 0.57097703 0.26074731 1.7338943e-38
3.1784148 0.60570985 0.24172261 1.69698e-38
3.2458425 0.64680541 0.23843148 1.6877603e-38
3.3535435 0.65534097 0.23655848 1.5402472e-38
3.4515493 0.68404245 0.25524548 1.3096859e-38
3.5013096 0.69856346 0.29551816 1.0608655e-38
3.0844159 0.79052961 0.2291868 1.5954928e-38
3.1544435 0.76095986 0.25035357 1.6231876e-38
3.2415237 0.71908146 0.25399393 1.6785407e-38
3.3500636 0.710087 0.25505897 1.6232592e-38
3.462846 0.71294612 0.24921465 1.0238793e-38
3.5068178 0.71378571 0.28777125 7.5647584e-39
3.0573514 0.8472985 0.24879351 1.5770172e-38
3.1069429 0.8046453 0.29186863 1.6047484e-38
3.0700576 0.94961548 0.25094205 1.5216271e-38
2.9784122 1.0938625 0.23860711 9.2242685e-39
3.0583761 1.0518684 0.25218219 7.9320822e-39
3.1026602 1.0436959 0.20535897 1.4015911e-38
2.8905139 1.1630576 0.2556864 1.2355293e-38
2.9287841 1.1271859 0.24862126 1.290956e-38
2.9312155 1.2513745 0.25050536 9.8652799e-39
2.9621794 1.3516108 0.24899751 9.3121019e-39
2.963459 1.4455849 0.25049436 6.45405e-39
2.9838333 1.5553744 0.24739714 7.9281151e-39
2.2970395 1.6728196 0.20215957 2.6754641e-39
2.354387 1.6728418 0.21615306 4.9781983e-39
2.4433062 1.6721362 0.21929446 7.5557186e-39
2.5405462 1.6843816 0.21135274 3.130697e-39
2.6389194 1.6847575 0.20800632 2.3960214e-39
2.7185793 1.6973777 0.20394236 3.1332151e-39
2.8685184 1.6470399 0.20836891 9.7698052e-39
2.9555235 1.6252159 0.23756574 7.4671384e-39
3.0302739 1.6669267 0.27760836 6.268598e-39
2.220583 1.7997421 0.20183784 2.7658409e-40
2.3579943 1.7499332 0.24914564 5.8090379e-39
2.4369187 1.7179739 0.2721661 2.4889205e-39
2.5568924 1.7438073 0.26410222 4.9760417e-39
2.6519861 1.7542902 0.25426549 4.3306723e-39
2.7422671 1.7711821 0.26144594 4.7916462e-39
2.8546143 1.7720802 0.24473196 5.0685932e-39
2.9472604 1.7660484 0.23784077 4.9767591e-39
3.0532072 1.7571979 0.27197638 4.4239567e-39
3.1030536 1.7558566 0.29356143 4.6087123e-39
2.1792743 1.8484383 0.2193962 5.5281224e-40
2.2493651 1.8256187 0.22792442 4.6061661e-40
2.3461189 1.8317894 0.26012096 7.3756364e-40
2.867943 1.8023379 0.29181123 4.8838348e-39
2.953732 1.8086188 0.28058502 4.7916406e-39
3.0193074 1.8102722 0.28574318 4.6994464e-39
2.183923 1.9295095 0.22103046 8.2939773e-40
2.2324116 1.951507 0.25766388 1.474407e-39
2.3647928 1.9543935 0.27700484 3.9636904e-39
2.4061227 1.9726292 0.2938177 4.5161453e-39
2.273659 2.0264599 0.26428199 2.4885575e-39
2.3493788 2.0494053 0.28850421 3.8711333e-39
2.4041765 2.0236838 0.29728851 4.3317541e-39
2.3365407 2.1023781 0.29462832 4.1477187e-39
4.2300549 -1.5095925 0.39466503 2.7766309e-40
4.165216 -1.4734387 0.39360613 4.6205435e-40
1.196187 -1.0027617 0.31926063 1.7527988e-39
1.2542958 -1.0214139 0.33794656 1.844993e-39
1.4731421 -1.0186813 0.3445389 1.1340409e-38
1.5266774 -1.0138007 0.3580257 1.1248214e-38
1.1760906 -0.98283994 0.30641276 1.8446329e-39
1.2395017 -0.95531577 0.32326254 2.0290227e-39
1.4642249 -0.99792266 0.30620605 1.1248214e-38
1.5758245 -0.95678401 0.34726736 1.0972346e-38
1.6050432 -0.90487248 0.37106791 1.0972706e-38
1.2209157 -0.89425308 0.31274191 2.5811119e-39
1.5998098 -0.89943039 0.3012023 1.1064902e-38
1.6518655 -0.86331731 0.34767851 1.0419531e-38
1.7330334 -0.82127392 0.3664248 8.3926806e-39
1.6790032 -0.73741823 0.33016124 7.4707201e-39
1.7312945 -0.75998533 0.36552066 5.6260914e-39
1.5996263 -0.68009377 0.32539877 5.5568771e-40
1.6526564 -0.69135833 0.34504923 1.661315e-39
1.7325822 -0.67352915 0.38396046 3.0431648e-39
1.8136525 -0.64477557 0.39701572 3.4104998e-39
2.0954914 -0.50244808 0.30232197 9.866712e-39
2.1603947 -0.51169646 0.36042982 9.9592678e-39
1.9788607 -0.41981554 0.35035375 7.9306038e-39
2.0499842 -0.4373329 0.35103816 9.1287883e-39
2.1297112 -0.47131285 0.35742521 9.866712e-39
2.2590451 -0.44104123 0.31303343 1.0326611e-38
2.3126686 -0.43788311 0.3081544 1.0510641e-38
2.265614 -0.21320403 0.32254907 1.0501631e-38
2.3256366 -0.22947526 0.3287251 1.0875451e-38
2.2737601 -0.15978631 0.32449192 9.4046507e-39
2.3166225 -0.14393902 0.36947042 9.3124579e-39
2.2941399 -0.094607651 0.30742916 9.6805215e-39
2.3574831 -0.070445567 0.34669855 9.6812404e-39
2.4268653 -0.023703407 0.35786399 9.8656316e-39
2.476316 0.045139629 0.34894326 1.0050023e-38
2.5032425 0.093501814 0.36769515 9.9581874e-39
2.4966619 0.10684998 0.30901822 1.0050023e-38
2.5288436 0.14978321 0.35130203 1.1342579e-38
2.5742254 0.23016348 0.3528187 1.6601727e-38
2.6296561 0.28151 0.34643459 9.4061136e-39
2.657196 0.34913218 0.35019559 9.8652771e-39
2.685576 0.40922537 0.33856803 9.6816103e-39
2.7402968 0.43059781 0.35493237 9.4064752e-39
2.8458126 0.46098146 0.35883024 1.6783949e-38
2.9432716 0.48678648 0.35584289 1.8444559e-38
2.9943302 0.50237781 0.30889189 1.7984301e-38
3.0576797 0.52728188 0.36499396 1.8353092e-38
3.1314259 0.56630713 0.34074932 1.7983952e-38
3.1961219 0.60078663 0.33662009 1.7615528e-38
3.2486532 0.61537147 0.34916401 1.7338581e-38
3.3530035 0.64336514 0.35768017 1.6047841e-38
3.4701276 0.68024337 0.3541998 1.2267457e-38
3.502938 0.69737327 0.33608586 7.2885317e-39
3.1754055 0.78396761 0.33295628 1.6416268e-38
3.2384782 0.75405443 0.3527706 1.6509182e-38
3.3476579 0.73032594 0.35122865 1.6510258e-38
3.4593661 0.72552347 0.36525196 1.4666703e-38
3.5104518 0.71545738 0.34295803 1.0793046e-38
3.0894258 0.86915004 0.34594718 1.5862367e-38
3.1308472 0.8222509 0.35711843 1.6231513e-38
3.0841856 0.9496212 0.35035533 1.5492139e-38
2.9936016 1.0987825 0.33094773 1.3280515e-38
3.0590866 1.0559264 0.34917071 7.5633011e-39
2.884119 1.1540798 0.35067958 1.1617368e-38
2.9485571 1.1220081 0.34881139 1.318615e-38
3.0053842 1.1031051 0.38698989 1.3648934e-38
2.9276569 1.2531075 0.3496789 9.4046577e-39
2.9600492 1.3490044 0.34972724 8.6667353e-39
2.9754565 1.4486316 0.35088322 8.11357e-39
2.9861703 1.5365645 0.34732279 7.836267e-39
3.0080414 1.5859981 0.35573542 7.2834548e-39
3.0494494 1.6410999 0.34625331 6.2689469e-39
3.1091599 1.69075 0.37584925 5.0704023e-39
2.3930519 1.7681791 0.33460787 2.0279451e-39
2.4213178 1.732057 0.35642487 2.1201408e-39
2.5585079 1.7682253 0.34307149 4.6998163e-39
2.6473315 1.7863126 0.34809536 4.9760389e-39
2.7397568 1.7952113 0.34451449 5.1604259e-39
2.8078156 1.7983714 0.30719519 4.9760305e-39
3.0772052 1.779395 0.31329533 3.9629701e-39
3.1293573 1.7549344 0.35121638 4.4246742e-39
2.3923697 1.8230987 0.32585034 2.3048907e-39
2.4212265 1.8535895 0.36121807 1.8435567e-39
2.6447237 1.8029007 0.39445943 4.7923693e-39
2.7687693 1.8023239 0.3745594 5.0685876e-39
2.8547578 1.8144062 0.3503921 4.8841922e-39
2.9502707 1.8272295 0.35155278 4.7916364e-39
3.0480068 1.8219876 0.3551172 4.515411e-39
3.1292243 1.8056195 0.37224188 3.6863791e-39
2.3968227 1.9120332 0.30315048 2.4889219e-39
2.4606016 1.9586031 0.35035336 4.5165083e-39
2.3838534 2.076961 0.31012133 3.9633289e-39
2.4430423 2.0510023 0.35484704 4.3317569e-39
2.3755324 2.1240392 0.34834409 4.0555245e-39
2.4165888 2.1179857 0.37222841 4.0555259e-39
4.6867809 -1.715403 0.48009217 5.5424998e-40
4.7528253 -1.7247047 0.49030936 4.6205435e-40
4.8061028 -1.7278783 0.49924856 5.5424998e-40
4.4674387 -1.6157849 0.43442765 4.6205435e-40
4.5509429 -1.639942 0.45356724 5.5424998e-40
4.640944 -1.6552942 0.47541481 7.3864124e-40
4.7198682 -1.6764494 0.49029192 7.3864124e-40
4.2747054 -1.5226696 0.40826932 4.6205435e-40
4.3556976 -1.5544364 0.42189774 4.6205435e-40
4.4496183 -1.5748256 0.44377765 7.3864124e-40
4.5480404 -1.5884991 0.46852222 1.291815e-39
1.5929534 -1.4092931 0.49118173 1.0792677e-38
1.6022433 -1.4100975 0.49775267 1.1622078e-38
4.1783528 -1.4690343 0.40389931 9.230325e-40
4.2091961 -1.4889815 0.40384996 4.6205435e-40
1.4990895 -1.3294065 0.4411962 7.4750753e-39
1.5518522 -1.3379301 0.47294009 9.5019372e-39
1.5315263 -1.2441193 0.47081751 7.1008656e-39
1.5369265 -1.1527194 0.46900809 1.1524801e-38
1.4963928 -1.0514095 0.40527639 1.134041e-38
1.5524215 -1.0443966 0.45114067 1.1340411e-38
1.6045864 -1.0055311 0.49046987 1.0511728e-38
1.5894444 -0.97467619 0.4199174 1.0880151e-38
1.6222943 -0.94156909 0.45978367 1.0880509e-38
1.6713843 -0.87383163 0.44065985 1.0879791e-38
1.7452612 -0.82928592 0.45577577 8.6667381e-39
1.7788581 -0.75369585 0.44601119 7.3767112e-39
1.8046252 -0.7387082 0.49048227 7.0090063e-39
1.7763366 -0.68137932 0.42466176 6.5473106e-39
1.8569033 -0.65146136 0.45459822 9.128061e-39
1.9073323 -0.60748655 0.45364258 9.0362283e-39
1.9315705 -0.55016404 0.45350111 9.3135411e-39
2.0449018 -0.51981378 0.4259733 7.1923227e-39
2.1706603 -0.51401359 0.42348257 9.5901266e-39
2.2418172 -0.53607547 0.43579617 9.6823194e-39
2.3065605 -0.56280285 0.45684665 9.6819607e-39
1.9722413 -0.45030954 0.45864806 7.4696285e-39
2.0355091 -0.43386364 0.42422292 9.4972107e-39
2.1467938 -0.45670438 0.42272028 9.9571084e-39
2.2566125 -0.41379341 0.45514384 1.0044622e-38
2.301676 -0.41574085 0.45991278 1.0690349e-38
1.9977009 -0.39974508 0.48275012 1.0419882e-38
2.0549972 -0.38348305 0.4726561 9.7734346e-39
2.1437089 -0.34465575 0.4792859 1.0418085e-38
2.2360382 -0.33935547 0.47807407 1.0507403e-38
2.3117313 -0.36014485 0.48216209 8.6490958e-39
2.1601038 -0.23655057 0.48125926 1.0695754e-38
2.2349601 -0.25785872 0.47916278 1.0418805e-38
2.1752365 -0.19793932 0.49031413 1.0419528e-38
2.2693429 -0.19009028 0.47956032 9.0365926e-39
2.3284559 -0.14637147 0.44998211 9.3124579e-39
2.3656034 -0.08112286 0.4501667 9.681239e-39
2.4399068 -0.032677755 0.45144063 9.8656288e-39
2.483248 0.039013736 0.44907323 1.0049663e-38
2.5043352 0.089615703 0.4539488 1.0141141e-38
2.5399437 0.1496224 0.449806 1.0973437e-38
2.5715821 0.24205469 0.45288384 1.1435869e-38
2.6114614 0.28884462 0.43018696 1.005003e-38
2.597213 0.30889505 0.49335724 1.0324452e-38
2.633388 0.34849089 0.44892484 1.0048948e-38
2.6912014 0.40396106 0.4426012 9.8656457e-39
2.7420647 0.42243496 0.44670847 8.9447754e-39
2.8439262 0.4511641 0.44830817 1.659919e-38
2.9508932 0.47982734 0.44925463 1.9366148e-38
3.0133224 0.49686927 0.46603224 1.9550901e-38
3.0649292 0.53287065 0.44848207 1.8998456e-38
3.1413612 0.57878 0.45299429 1.8537122e-38
3.2047796 0.5977906 0.4924159 1.7984307e-38
3.2592256 0.61343914 0.4420743 1.7430055e-38
3.3616018 0.64106488 0.44670382 1.6138596e-38
3.4480734 0.679802 0.45368221 9.497987e-39
3.1964381 0.79792142 0.46187988 1.6876886e-38
3.2446814 0.7681095 0.45120728 1.706164e-38
3.3493359 0.73970938 0.44747129 1.6601379e-38
3.4536917 0.72276181 0.44708937 1.3096139e-38
3.0854483 0.87368011 0.45287421 1.6138955e-38
3.1448705 0.82576197 0.45021251 1.6599937e-38
3.2006636 0.80019182 0.44560689 1.678469e-38
3.0772982 0.9478904 0.4518491 1.5676889e-38
2.997237 1.0977561 0.47838983 1.4201028e-38
3.0699201 1.0603333 0.44694594 7.5633025e-39
3.1090264 1.0472002 0.47718212 7.5625724e-39
2.8916752 1.1585215 0.44723272 1.143369e-38
2.9448771 1.1250988 0.45215017 1.2724807e-38
3.0078042 1.1021847 0.42037722 1.3649657e-38
2.9280603 1.2526152 0.4499242 9.3124579e-39
2.956223 1.3471875 0.44967017 8.7592855e-39
2.9806142 1.4494878 0.44976807 8.1135629e-39
2.9865987 1.5330472 0.4447881 7.2838037e-39
3.0105979 1.5786995 0.45947459 6.2696532e-39
3.0576615 1.6348296 0.44846147 5.4395366e-39
3.1139467 1.6895186 0.45000449 4.7934497e-39
2.4236813 1.735795 0.44587174 1.3822324e-39
2.5571725 1.7790056 0.44767103 3.5023647e-39
2.7439451 1.7987623 0.40608019 4.9763934e-39
2.9753726 1.7952038 0.48522303 4.0544301e-39
3.0482991 1.7927732 0.46657541 3.9622359e-39
3.1349616 1.7554032 0.4539918 4.0555217e-39
2.4707491 1.8379941 0.43949619 3.3183448e-39
2.5159216 1.8735839 0.47111261 3.6864267e-39
2.6632354 1.8162223 0.4501583 4.0551728e-39
2.7446482 1.8093313 0.45302251 4.2384752e-39
2.8548119 1.8222078 0.45131379 4.2381067e-39
2.9436405 1.817515 0.45028841 4.2384612e-39
3.0383687 1.8130573 0.41942272 4.3306583e-39
3.1345835 1.8040026 0.42527255 3.5023437e-39
2.4923625 1.9449741 0.40725425 4.147737e-39
2.5454147 1.958402 0.45229581 4.1477538e-39
2.4804287 2.074605 0.41394874 4.2395696e-39
2.5472784 2.0514059 0.4557237 4.1473908e-39
2.602107 2.0214262 0.49792874 3.1332655e-39
2.3945625 2.1562235 0.41033393 4.0555301e-39
2.4450703 2.144697 0.45129719 4.0551784e-39
2.5330224 2.1192999 0.48131412 4.1470321e-39
5.2689719 -1.9132316 0.57773584 5.5424998e-40
5.3816414 -1.9489788 0.59785384 5.5424998e-40
4.9770689 -1.8180501 0.53136861 4.6205435e-40
5.0444422 -1.8230015 0.54149598 5.5424998e-40
5.1486139 -1.8397992 0.56084287 6.4644561e-40
5.2606258 -1.8662714 0.57985318 6.4644561e-40
5.3339424 -1.8868757 0.59255481 6.4644561e-40
4.8586216 -1.738134 0.51300853 5.5424998e-40
4.9378629 -1.7618324 0.5263114 5.5424998e-40
5.0344319 -1.7723985 0.547194 6.4644561e-40
5.1600299 -1.7918419 0.57323468 9.230325e-40
4.760674 -1.6646258 0.50597364 8.3083687e-40
4.8372116 -1.6866703 0.51995122 8.3083687e-40
1.6263685 -1.4295981 0.55455846 1.1529524e-38
1.5860392 -1.3368899 0.53971064 1.0884146e-38
1.6096658 -1.376663 0.55957067 1.1160738e-38
1.5393939 -1.2397416 0.55094457 7.8377089e-39
1.5583208 -1.1498626 0.55232656 1.134041e-38
1.5833143 -1.0731359 0.53686225 1.1063823e-38
1.6159612 -1.0320439 0.55971521 1.0879432e-38
1.6565305 -0.95476472 0.54949969 1.0603204e-38
1.7094086 -0.91215235 0.57524323 1.0695038e-38
1.6910806 -0.88963085 0.51264632 1.0695758e-38
1.7545265 -0.85206062 0.55067199 9.9578315e-39
1.8049157 -0.80558455 0.56790727 1.0326614e-38
1.7949128 -0.79613227 0.50690085 4.7948804e-39
1.8279959 -0.75015593 0.55272096 9.7737989e-39
1.8746067 -0.6767152 0.54289061 1.0142577e-38
1.9210594 -0.63063669 0.55869269 1.0603198e-38
1.9377272 -0.54861897 0.54939985 9.4975722e-39
1.9770319 -0.4530974 0.54899061 8.2993891e-39
2.0074008 -0.40245205 0.56156063 1.0603914e-38
2.057085 -0.37851405 0.54966116 9.5894007e-39
2.1178825 -0.32828614 0.5510416 1.0603555e-38
2.1254778 -0.2497324 0.54690874 1.0419527e-38
2.160624 -0.18418978 0.55522239 9.2206196e-39
2.2520151 -0.142317 0.54822236 9.3128152e-39
2.3094447 -0.12586668 0.51038915 9.4046521e-39
2.2865765 -0.090582959 0.57497317 9.589042e-39
2.3509784 -0.066365421 0.55219215 9.7734332e-39
2.429724 -0.023844672 0.54230952 9.8656302e-39
2.4659102 0.044033047 0.5536834 1.0049661e-38
2.5050755 0.089830048 0.52466762 1.014114e-38
2.4957283 0.10453576 0.58859479 1.0141141e-38
2.5437005 0.1500268 0.54978859 1.1250026e-38
2.562134 0.24958751 0.55020857 1.115747e-38
2.578706 0.33219391 0.554205 1.0324453e-38
2.6221693 0.3776232 0.53810412 9.8652799e-39
2.6861913 0.40417618 0.55031604 7.1941388e-39
2.7398357 0.41890949 0.54487389 1.1528058e-38
2.8519046 0.44476312 0.55096173 1.8905513e-38
2.9517195 0.47006026 0.54754287 2.0196618e-38
3.0273898 0.49148548 0.56012434 2.0196979e-38
3.0730717 0.52477217 0.5499416 1.9828564e-38
3.1364598 0.5663994 0.54462832 1.9183562e-38
3.2220428 0.59316564 0.56018579 1.8445639e-38
3.2689743 0.60893899 0.54265285 1.7339293e-38
3.3511455 0.63100064 0.55345684 1.5956359e-38
3.4388223 0.67651445 0.55083221 9.9629252e-39
3.1921659 0.79433566 0.55329627 1.7246028e-38
3.2441006 0.76167226 0.55085897 1.7615172e-38
3.3496003 0.73559725 0.55261946 1.7155273e-38
3.4313638 0.72012877 0.54788727 1.3467085e-38
3.0714147 0.86455083 0.55055338 1.6507739e-38
3.1398804 0.81692922 0.54760891 1.6969081e-38
3.0502441 0.94623786 0.54803324 1.5769083e-38
2.9925094 1.0919693 0.56830621 1.4476894e-38
3.0636625 1.0665566 0.54859459 6.7342621e-39
3.1084347 1.0392927 0.54934937 7.2859883e-39
2.8970473 1.1464624 0.52220267 1.2816267e-38
2.9278626 1.1372448 0.55303448 1.1894675e-38
2.9408462 1.2530804 0.55015689 9.0358682e-39
2.957866 1.3440194 0.5497455 8.6670885e-39
2.9887683 1.4492911 0.54716432 7.7451364e-39
3.0011322 1.4290737 0.5894385 7.9295262e-39
2.9932287 1.5130734 0.53016824 7.2841596e-39
3.0250962 1.5576205 0.55404937 6.4540402e-39
3.0711017 1.6274545 0.54853392 5.3473325e-39
3.1217821 1.6798652 0.55413437 4.5175733e-39
2.4617391 1.767774 0.56208056 5.0669775e-39
2.5528576 1.7677672 0.56014061 4.8026604e-39
2.6376042 1.7748929 0.56221986 3.7974866e-39
2.716135 1.7925532 0.58873737 3.6854472e-39
2.855046 1.7613262 0.57399958 4.1513789e-39
2.9454427 1.7750015 0.54596072 4.0540742e-39
3.0512252 1.7828164 0.54995215 3.9622373e-39
3.1267543 1.7492155 0.54902869 3.5945366e-39
2.2938156 1.8298687 0.59831417 5.0756726e-39
2.3503911 1.8559134 0.58896291 4.3290972e-39
2.4572952 1.843287 0.57219046 5.5244258e-39
2.5240023 1.8696764 0.52960354 4.1464478e-39
2.6679437 1.821918 0.51838064 3.5942591e-39
2.7577515 1.8181307 0.54350775 3.9630542e-39
2.8445392 1.8143406 0.54531735 4.1459671e-39
2.910929 1.8050069 0.50574809 3.8700416e-39
2.2534933 1.9733889 0.58968866 4.2351247e-39
2.3483777 1.9503351 0.58421904 5.1606978e-39
2.4456584 1.9371203 0.56914979 5.8925147e-39
2.5611944 1.9450353 0.54096955 4.1450072e-39
2.6086929 1.9849539 0.54079807 3.6857863e-39
2.2661712 2.0191786 0.58092159 5.2503739e-39
2.3480539 2.0422237 0.57608426 4.1457807e-39
2.4524052 2.0438323 0.57968068 4.145422e-39
2.5594428 2.0594406 0.56537336 3.6858227e-39
2.6234388 2.056999 0.5434826 3.409177e-39
2.3796291 2.1290426 0.58854467 3.5932726e-39
2.4568288 2.168843 0.54896116 3.132918e-39
2.5521679 2.1467509 0.54871708 3.1329264e-39
2.6139405 2.1252434 0.5584389 3.2247787e-39
2.4375894 2.2036846 0.56805724 2.9485239e-39
5.7908955 -2.1028099 0.66002703 6.4644561e-40
5.8644061 -2.1083536 0.68109488 5.5424998e-40
5.9543991 -2.1678793 0.68725282 5.5424998e-40
6.0077448 -2.1815529 0.69340992 5.5424998e-40
5.5778556 -2.017381 0.62769842 5.5424998e-40
5.6434097 -2.0215559 0.6464805 5.5424998e-40
5.7465696 -2.0594804 0.66324031 6.4644561e-40
5.8383436 -2.0863483 0.69070327 5.5424998e-40
5.9385242 -2.0664346 0.68542051 7.3864124e-40
6.0330176 -2.0775595 0.69632691 7.3864124e-40
5.4387422 -1.9469134 0.60644102 5.5424998e-40
5.560214 -1.9658052 0.63301885 6.4644561e-40
5.6271567 -1.9688401 0.64675659 6.4644561e-40
5.3643465 -1.8744144 0.60367143 7.3864124e-40
1.5878662 -1.4070976 0.63273507 1.2081258e-38
1.6202061 -1.4272213 0.61314553 1.1529163e-38
1.5657058 -1.3488665 0.65069556 1.1805026e-38
1.6072593 -1.3846636 0.60600317 1.1436248e-38
1.5392567 -1.2425346 0.65010339 7.930622e-39
1.5685335 -1.1498383 0.6499722 1.1156017e-38
1.6000019 -1.1003573 0.6763311 1.0971625e-38
1.5969036 -1.0958489 0.62672555 1.0971986e-38
1.6231422 -1.0498819 0.65169501 1.0787235e-38
1.6627057 -0.95784026 0.64816374 1.0603201e-38
1.709877 -0.91241944 0.6533581 1.0603199e-38
1.757404 -0.85828596 0.64916915 1.0511004e-38
1.8059479 -0.80779511 0.64866865 1.0418808e-38
1.8355838 -0.7506122 0.65029907 9.865633e-39
1.8812494 -0.68813407 0.64724529 1.0234414e-38
1.9272513 -0.64011693 0.65103799 1.0418804e-38
1.9484723 -0.54802322 0.65010285 9.312818e-39
1.9878595 -0.45886648 0.64636219 9.6816019e-39
2.0093699 -0.41182017 0.66374362 9.7737947e-39
2.0678995 -0.37662473 0.64405096 9.8656288e-39
2.1123374 -0.32767037 0.65303487 1.0695392e-38
2.1250093 -0.24966359 0.64897913 1.0327329e-38
2.1748843 -0.18533304 0.6436345 9.0365898e-39
2.2404537 -0.1364056 0.65174091 9.4046535e-39
2.2875156 -0.087478533 0.65093666 9.589042e-39
2.3507233 -0.042107079 0.65145105 9.681239e-39
2.4052134 -0.0068767103 0.62526047 9.8656288e-39
2.3977485 0.0053154482 0.6890735 9.7737919e-39
2.4363556 0.049547534 0.64873636 9.9574643e-39
2.4865296 0.11152403 0.65237373 9.865633e-39
2.5395122 0.16172872 0.64819556 1.0882691e-38
2.5470018 0.24884908 0.64909995 1.0603209e-38
2.5590825 0.33694774 0.64919132 1.0599957e-38
2.6320961 0.38826212 0.6491822 1.0050397e-38
2.6926231 0.40486726 0.63069636 1.5861248e-38
2.758369 0.41985145 0.65057284 2.065614e-38
2.8592749 0.44376463 0.65654778 2.1671372e-38
2.9593198 0.47216475 0.65927613 2.1395867e-38
3.0272582 0.49250495 0.64153802 2.0935255e-38
3.0613728 0.522506 0.65036315 2.0659031e-38
3.1427863 0.56168115 0.64888102 1.9921833e-38
3.2427437 0.58953977 0.65908796 1.8815135e-38
3.2820222 0.60272902 0.6108253 1.8538551e-38
3.3630271 0.62158507 0.64998662 1.7154898e-38
3.4384327 0.67122412 0.65177333 1.1069631e-38
3.1874933 0.79466838 0.6501658 1.7523335e-38
3.2477093 0.75982648 0.65092862 1.8076508e-38
3.3491888 0.72607803 0.65365034 1.7984311e-38
3.4224396 0.71301848 0.64592725 1.3651475e-38
3.0865431 0.87494916 0.63533914 1.6783967e-38
3.1296601 0.83170509 0.65730155 1.7154191e-38
3.0752373 0.94692022 0.6499576 1.5861638e-38
3.1000211 0.90025437 0.69769597 1.6784326e-38
2.981817 1.0828922 0.65455633 1.4477972e-38
3.0692182 1.0490837 0.64933711 4.7070386e-39
3.1055074 1.0257622 0.64485091 8.2086677e-39
2.8995898 1.1557833 0.69860095 8.8525615e-39
2.9190288 1.1419557 0.64864326 1.1065268e-38
2.9382689 1.2535733 0.64999533 8.7596414e-39
2.9526052 1.3444524 0.64870542 8.2983059e-39
2.9911427 1.4427677 0.64679271 7.5607423e-39
3.0033102 1.4841093 0.65391576 7.284154e-39
3.0411777 1.5480685 0.64817995 6.3622005e-39
2.8220088 1.6916919 0.65848953 9.027941e-39
3.0872877 1.6161103 0.63813883 5.4395267e-39
3.1308537 1.6639464 0.65592587 4.7934385e-39
2.2394257 1.7967715 0.61395526 9.4928764e-39
2.3901281 1.7671533 0.61817175 8.4798217e-39
2.436897 1.7501377 0.63091946 6.1785379e-39
2.5513291 1.7655907 0.63612634 7.3756546e-39
2.6525717 1.778164 0.63669312 8.5727769e-39
2.7636623 1.7547042 0.65198642 7.6504506e-39
2.831399 1.7349705 0.62365264 6.0896578e-39
2.950947 1.7377598 0.64372313 4.1451796e-39
3.0596592 1.7596987 0.6491977 3.5930918e-39
3.1398635 1.7324705 0.64962327 3.7782061e-39
2.1729622 1.870429 0.63376248 9.4014123e-39
2.2515841 1.8478538 0.63623983 5.4403017e-39
2.3505604 1.8343433 0.63985169 5.622165e-39
2.4301407 1.8343863 0.67457342 6.9150198e-39
2.5435131 1.8116009 0.69329697 7.1959409e-39
2.6601014 1.8082588 0.68860817 6.4572898e-39
2.7391891 1.8032266 0.66232795 6.1775178e-39
2.8177428 1.8037701 0.60391867 4.4216376e-39
2.1703513 1.9308963 0.63474822 6.6407058e-39
2.2423074 1.9369628 0.63470137 3.2269914e-39
2.3124356 1.9270939 0.60158223 3.6898487e-39
2.3908474 2.1602125 0.60017353 3.6854836e-39
7.6592722 -2.5097356 0.75458068 1.8457021e-39
7.755621 -2.514128 0.77395272 6.2710867e-39
7.8048859 -2.5151103 0.79574424 7.6536624e-39
6.5776372 -2.4074728 0.7876544 5.5424998e-40
6.6484227 -2.4237895 0.79613084 5.5424998e-40
7.337697 -2.4183571 0.77016377 1.3840078e-39
7.4641323 -2.4609413 0.76815969 1.3840064e-39
7.5474572 -2.4771507 0.7731204 1.3840078e-39
7.6848187 -2.4714315 0.73414159 1.0882672e-38
7.7357941 -2.4516928 0.7628572 1.9916406e-38
6.3727493 -2.3186703 0.75392592 5.5424998e-40
6.4488478 -2.3253491 0.77227557 5.5424998e-40
6.5037413 -2.3241343 0.79287761 6.4644561e-40
6.6109662 -2.3910594 0.79164553 5.5424998e-40
6.9942875 -2.3127565 0.75682408 1.3836491e-39
7.0453682 -2.3041961 0.77761745 1.6598759e-39
7.1530552 -2.3419881 0.77919942 1.568039e-39
7.2171593 -2.3864512 0.76011628 1.2918136e-39
7.3240476 -2.3953803 0.79250604 1.6598759e-39
7.6657343 -2.3444979 0.76384801 2.2221301e-38
7.7054024 -2.3881013 0.76985025 2.2220939e-38
6.1676116 -2.2455239 0.72075939 5.5424998e-40
6.2271023 -2.2387283 0.74120146 5.5424998e-40
6.3368955 -2.2645073 0.7679683 6.4644561e-40
6.5697784 -2.2570298 0.77723545 8.3083687e-40
6.6553931 -2.2476387 0.77578962 1.0152281e-39
6.7739682 -2.2210071 0.79020119 1.3832904e-39
6.8551259 -2.2617891 0.78173423 1.291815e-39
6.9400568 -2.2797897 0.76897925 1.4758447e-39
7.0139384 -2.2737193 0.78930664 1.4758433e-39
7.4768181 -2.2134366 0.76049507 1.5584654e-38
7.5510798 -2.2496269 0.77202892 2.0931281e-38
7.614419 -2.2898741 0.78273749 2.2958147e-38
5.9424725 -2.1149862 0.71159518 6.4644561e-40
6.0288453 -2.1631029 0.71326035 5.5424998e-40
6.2205629 -2.1422396 0.72247231 9.230325e-40
6.3474383 -2.1732335 0.74063593 9.230325e-40
6.4765553 -2.1836064 0.74285245 1.1996194e-39
6.5129542 -2.1958785 0.76111686 1.1074238e-39
6.6831794 -2.1587849 0.79643047 1.6595171e-39
6.7358313 -2.1816087 0.79104358 1.5676802e-39
7.475419 -2.1824596 0.78134084 1.1343655e-38
6.123868 -2.0911999 0.70681274 1.1074238e-39
1.5925955 -1.4093018 0.76432836 1.2081254e-38
1.6016855 -1.4122415 0.79428124 1.1989417e-38
1.5779567 -1.3513383 0.7448433 1.1343683e-38
1.6016424 -1.375389 0.79274052 1.1896859e-38
1.5557793 -1.2448481 0.74952048 7.8377019e-39
1.5743843 -1.1495829 0.74951369 1.0695038e-38
1.5961678 -1.0933006 0.76229614 1.0602841e-38
1.6204414 -1.0470093 0.74843466 1.0418808e-38
1.6608993 -0.96188968 0.74984676 1.0142221e-38
1.7168189 -0.91737306 0.75155091 1.0234416e-38
1.7636374 -0.85980874 0.74813563 1.0050023e-38
1.8065314 -0.80944061 0.75385416 1.0141858e-38
1.8423129 -0.75049537 0.74988985 9.4968477e-39
1.8881582 -0.69011563 0.73706663 1.0142216e-38
1.9263672 -0.64364946 0.7502684 1.0142217e-38
1.9564489 -0.54873693 0.74957091 9.035871e-39
1.9913844 -0.48388398 0.73206276 1.0142219e-38
2.0107434 -0.43874761 0.75486374 9.0362297e-39
2.0675933 -0.37518814 0.75891811 9.4972065e-39
2.1166916 -0.32997838 0.74258953 1.0510998e-38
2.136658 -0.25020787 0.75111836 1.0327327e-38
2.2017412 -0.2023464 0.79410774 9.5897608e-39
2.1887798 -0.19399275 0.72410393 9.2213384e-39
2.2509661 -0.15187006 0.74899727 9.4046521e-39
2.3059847 -0.10904059 0.77814043 9.4046521e-39
2.2946634 -0.091967277 0.71341568 9.4968463e-39
2.3499238 -0.053977024 0.748586 9.589042e-39
2.4089141 -0.010994231 0.77653283 9.589042e-39
2.3972163 0.0052054217 0.71143359 9.6812376e-39
2.4383247 0.050557222 0.74992514 9.7730745e-39
2.4826608 0.11321129 0.74644881 9.4968547e-39
2.5510263 0.1635599 0.75027531 1.1989044e-38
2.5605323 0.24934053 0.74887335 1.0508849e-38
2.5685959 0.33158088 0.74888039 1.1058414e-38
2.6353245 0.37964347 0.75059396 1.2353491e-38
2.721103 0.39503708 0.79168469 1.2354226e-38
2.6926849 0.40126851 0.70702338 2.1391184e-38
2.7441669 0.41063634 0.75133145 2.1574861e-38
2.85074 0.438595 0.75218409 2.2774481e-38
2.9610476 0.47850204 0.74988014 2.2498972e-38
3.0007174 0.49912035 0.70132065 2.1580257e-38
2.9977412 0.50295007 0.74244261 2.1947239e-38
3.0474141 0.53691691 0.75052202 2.1487344e-38
3.1270566 0.58311617 0.75245577 2.0382447e-38
3.2454481 0.59109622 0.72002161 1.7985014e-38
3.1731551 0.6181466 0.77503842 2.0106221e-38
3.2448337 0.66360939 0.77817738 1.8907331e-38
3.3542569 0.65720433 0.76512408 1.448195e-38
3.4258213 0.67000669 0.73959291 1.1992304e-38
3.1853633 0.79162258 0.74867815 1.7984312e-38
3.2414246 0.74484593 0.74975705 1.872259e-38
3.352186 0.71044564 0.73204613 1.807758e-38
3.4114087 0.70411927 0.72615659 1.5496102e-38
3.1346021 0.8467645 0.74800897 1.7430058e-38
3.0913885 0.94746369 0.72335428 1.6138226e-38
3.1141372 0.9478609 0.76869977 1.5861279e-38
2.9725928 1.0807565 0.75145715 1.4108469e-38
3.0554154 1.0398648 0.75072891 4.5219299e-39
3.1155312 1.0132172 0.75034285 8.6692871e-39
2.8988152 1.1547774 0.74406797 9.0365954e-39
2.9182668 1.1446451 0.74991661 1.0696124e-38
2.9340303 1.2517353 0.74998224 8.3905016e-39
2.9583812 1.3464437 0.74939001 7.9295234e-39
2.9966798 1.4219881 0.73513913 7.5607395e-39
3.007055 1.4615735 0.75783372 7.191957e-39
3.0560625 1.5452822 0.74926406 6.1774463e-39
3.1030581 1.5972574 0.76329857 5.5317196e-39
2.774178 1.6818001 0.76799619 5.4341247e-39
2.8168759 1.6759393 0.74355894 8.5669657e-39
3.0976334 1.6034026 0.7060973 5.3473283e-39
3.1442232 1.6527334 0.75149602 4.7016016e-39
2.7785552 1.7492068 0.74530858 3.9658554e-39
2.86041 1.7037703 0.71869034 6.7216139e-39
2.9556682 1.7350934 0.74704236 4.4206833e-39
3.0633619 1.7689335 0.74645472 3.9607897e-39
3.1464882 1.7390742 0.75254518 3.5016179e-39
2.2902484 1.8945616 0.70644921 3.9672777e-39
2.34513 1.8922113 0.71666789 3.2286323e-39
2.4621828 1.8639357 0.74490774 6.8220885e-39
2.5462308 1.8364524 0.74915856 7.8413075e-39
2.6558824 1.8306167 0.74899304 6.7331592e-39
2.7442122 1.8194348 0.75453311 7.0111909e-39
2.8026421 1.8225082 0.78505892 9.4104507e-39
2.2654107 1.9693249 0.72952449 2.7662234e-39
2.3427753 1.9454674 0.75910598 3.3190329e-39
2.4402227 1.9189368 0.76724887 3.7789278e-39
2.2570572 2.013726 0.76899582 2.5821881e-39
2.3164234 2.0053852 0.79241705 6.453638e-40
6.8702898 -2.5145829 0.86828071 6.4644561e-40
6.9487724 -2.5343528 0.8699863 6.4644561e-40
7.0471239 -2.5566392 0.8806197 6.4644561e-40
7.1342063 -2.5596814 0.88517159 6.4644561e-40
7.7764163 -2.5110631 0.81759781 1.9368215e-39
6.5795898 -2.4129324 0.87331748 8.3083687e-40
6.6679869 -2.4289908 0.84841156 7.3864124e-40
6.7516785 -2.4400427 0.86693156 8.311956e-40
6.8568482 -2.4351161 0.86398125 7.3863983e-40
6.9341292 -2.4598665 0.88034666 8.3083546e-40
7.034718 -2.4298818 0.86824328 1.1074224e-39
7.1439486 -2.4704459 0.88123119 8.3083687e-40
7.4695134 -2.4105935 0.8226276 1.9364628e-39
7.5431824 -2.423439 0.84167498 1.7517114e-39
7.6435089 -2.4508259 0.844248 1.6595157e-39
7.7369156 -2.4391325 0.84139705 1.5950194e-38
6.2787123 -2.311656 0.85149765 2.1215743e-39
6.3904805 -2.3297613 0.857436 2.2137713e-39
6.4311366 -2.3414786 0.85979325 1.937183e-39
6.5578923 -2.3434646 0.84910429 1.3843694e-39
6.6600227 -2.3722017 0.86280882 1.1077825e-39
6.7742329 -2.3432021 0.85289532 2.2141286e-39
6.8481712 -2.3314099 0.85042107 1.8453461e-39
6.9376903 -2.3660262 0.862306 1.5684005e-39
7.004488 -2.3818119 0.869084 1.5684005e-39
7.1936078 -2.3008292 0.8302815 1.7517114e-39
7.2499542 -2.3433034 0.81233263 1.7520729e-39
7.3600783 -2.332715 0.85756773 1.4754832e-39
7.4356627 -2.3648067 0.85824096 1.8442657e-39
7.5661559 -2.3872399 0.87872106 1.198176e-39
7.676126 -2.3323407 0.85095763 2.3234013e-38
7.7067471 -2.3809521 0.84997958 2.3141818e-38
5.9852529 -2.2079198 0.82896918 2.7669451e-39
6.1366243 -2.2282817 0.83712184 3.1360863e-39
6.2445464 -2.2464719 0.8378337 3.2282806e-39
