# .PCD v0.7 - Point Cloud Data file format
VERSION 0.7
FIELDS x y z rgb
SIZE 4 4 4 4
TYPE F F F F
COUNT 1 1 1 1
WIDTH 1027
HEIGHT 1
VIEWPOINT 0 0 0 1 0 0 0
POINTS 1027
DATA ascii
1.1462723 -0.94515783 -0.35447276 7.372021e-40
1.2010982 -0.91122168 -0.39426428 2.7658689e-40
2.0781388 -0.93019736 -0.35064539 1.1152039e-38
2.1134651 -0.97881979 -0.35039908 1.0414475e-38
1.1636919 -0.84765786 -0.34915224 2.9484553e-39
1.2546898 -0.86630791 -0.34558374 5.6228446e-39
1.3066325 -0.86273897 -0.38262659 5.6232033e-39
1.9988316 -0.80079716 -0.30565396 5.5273938e-39
2.0265036 -0.84869587 -0.35055089 1.3733871e-38
1.167493 -0.79650462 -0.38305056 2.5778679e-39
1.2022665 -0.79907423 -0.39891922 3.9608037e-39
1.9526008 -0.74334985 -0.34955776 1.2439151e-38
2.0021882 -0.7977829 -0.35597903 1.5300108e-38
1.8801473 -0.62494683 -0.35069951 3.2221387e-39
1.9149216 -0.67754471 -0.35041115 5.6166873e-39
1.789542 -0.50638443 -0.34994984 1.6494667e-38
1.8289664 -0.55416191 -0.3492347 8.1019952e-39
1.7522249 -0.44915321 -0.35190743 1.0783597e-38
1.6711739 -0.32681873 -0.35237107 1.2076505e-38
1.7158531 -0.37808606 -0.35319644 9.7708828e-39
1.5892789 -0.21236095 -0.34765941 1.7790094e-38
1.6274285 -0.26185089 -0.35093433 1.2260177e-38
1.5496693 -0.14939927 -0.34977928 1.382569e-38
1.4802126 -0.027687345 -0.33915973 1.4655808e-38
1.5153697 -0.070574105 -0.35697508 9.7698179e-39
1.3954291 0.093364775 -0.35304573 1.7052168e-38
1.4306222 0.045414697 -0.34725639 1.483984e-38
1.3515744 0.15088971 -0.35003701 1.7052884e-38
1.2760617 0.26287773 -0.35041356 1.4011524e-38
1.3085681 0.21227324 -0.35106722 1.5947264e-38
1.2324798 0.35127205 -0.35002106 1.1430414e-38
1.1488421 0.45341593 -0.34830102 1.1979971e-38
1.2063411 0.40660542 -0.36308751 1.3458347e-38
1.1300095 0.52130961 -0.35091212 1.1879103e-38
1.3698527 0.69494736 -0.33555979 6.9970966e-39
1.3857944 0.71589398 -0.34027267 7.1811263e-39
1.4361137 0.75609308 -0.37142444 6.9048982e-39
1.3855338 0.8285948 -0.31462517 5.5295504e-39
1.4442396 0.85790759 -0.35501754 6.543338e-39
1.5020785 0.84820139 -0.38708204 6.4500605e-39
1.3990591 0.90223312 -0.30678391 3.0406313e-39
1.4386618 0.95191789 -0.35323694 7.004679e-39
1.4564517 1.053773 -0.35223651 7.9262724e-39
1.4466187 1.1508957 -0.35052413 8.8489462e-39
1.4312655 1.2219507 -0.35484675 9.4946757e-39
2.3512006 -1.4377147 -0.25594342 8.0202729e-39
2.3399107 -1.353184 -0.24694361 1.2168348e-38
2.2755444 -1.2368053 -0.24974304 1.0233685e-38
2.3097332 -1.2857673 -0.25481477 1.152406e-38
1.2696081 -1.1210498 -0.20843282 1.1063448e-39
1.3670338 -1.1034908 -0.20190595 1.1985774e-38
2.1967027 -1.1075896 -0.2706663 1.1615538e-38
2.2218714 -1.1516834 -0.24756695 8.9429523e-39
1.1636437 -1.0176873 -0.22610617 1.1981803e-39
1.2554388 -1.0502007 -0.21651739 2.6736649e-39
1.3320357 -1.072122 -0.21663642 4.7945217e-39
2.1582847 -1.048898 -0.25131574 1.2721523e-38
1.0894033 -0.93497884 -0.28533012 1.1893943e-38
1.146027 -0.94873291 -0.25521329 1.4751273e-39
1.2391248 -0.95187986 -0.22404705 1.7517128e-39
2.0829949 -0.93410569 -0.24954714 6.6373455e-39
2.1114087 -0.98359782 -0.24904272 7.8362418e-39
1.0959729 -0.8978765 -0.289518 1.2446756e-38
1.1639633 -0.87013572 -0.25963935 4.4250231e-39
1.23124 -0.86820883 -0.25218356 4.2402703e-39
1.9986846 -0.8017956 -0.26093554 9.8627478e-39
2.0279329 -0.84889358 -0.24997999 1.0416642e-38
1.9522022 -0.74560058 -0.24982309 1.3178158e-38
1.8758532 -0.62475282 -0.25059658 3.3146944e-39
1.9129843 -0.67704731 -0.24952255 6.0773039e-39
1.79309 -0.50950283 -0.24215269 1.1052603e-38
1.8264956 -0.55542898 -0.25099462 7.5509893e-39
1.7466445 -0.44755286 -0.24916276 1.5577041e-38
1.673828 -0.32996976 -0.25238293 1.3366161e-38
1.7118989 -0.37926772 -0.24534023 1.2997018e-38
1.5926247 -0.20925105 -0.25731504 1.6592272e-38
1.6262388 -0.25866511 -0.24881862 1.1891392e-38
1.5553532 -0.14845495 -0.25072673 1.4195554e-38
1.4894131 -0.019099515 -0.25619456 8.2071851e-39
1.519213 -0.066106692 -0.24931116 7.3752664e-39
1.3956856 0.094797887 -0.23686169 1.0690325e-38
1.4447819 0.049328543 -0.25288332 6.7295327e-39
1.3469665 0.15254711 -0.24947119 1.2165088e-38
1.4068558 0.10302879 -0.2554968 4.422121e-39
1.2773174 0.27111974 -0.25749001 4.3292107e-39
1.3091699 0.22817013 -0.23832594 6.9085093e-39
1.2356001 0.3502512 -0.24843447 7.0003406e-39
1.1511512 0.46011373 -0.25673068 9.6721964e-39
1.2124428 0.42721897 -0.22695778 1.2436601e-38
1.0944675 0.56975418 -0.2374856 1.151284e-38
1.1274036 0.53980935 -0.23289144 1.142173e-38
1.2114933 0.52919406 -0.20399903 2.2112406e-39
1.1498653 0.62565345 -0.22516558 1.2160734e-38
1.2157575 0.6591019 -0.21056232 7.9237347e-39
1.2686763 0.73101151 -0.22107658 9.8591142e-39
1.3238142 0.78124052 -0.23967649 8.7534939e-39
1.3791852 0.84783262 -0.2584058 6.2663909e-39
1.4147917 0.881567 -0.22452939 5.9905271e-39
1.3989037 0.90069103 -0.29665795 5.806496e-39
1.438951 0.9495526 -0.24817999 7.7426014e-39
1.4602609 1.0579052 -0.24797614 7.9262724e-39
1.3835429 1.1571441 -0.22700873 8.6645591e-39
1.422837 1.1369494 -0.25842652 8.8482287e-39
1.3953907 1.20862 -0.25946897 9.770185e-39
1.4060565 1.2102095 -0.28509077 9.7701836e-39
1.8305436 -1.6183338 -0.1358216 8.2957892e-39
1.7762675 -1.5359014 -0.1665725 8.4805392e-39
1.8184955 -1.568022 -0.12743287 9.1259072e-39
1.6873294 -1.4152434 -0.1419674 7.0990467e-39
1.7399594 -1.4695261 -0.15313476 8.2968682e-39
2.3333051 -1.4104229 -0.18117987 7.5603808e-39
1.5845947 -1.3191383 -0.16739331 6.4536773e-39
1.6403309 -1.3463796 -0.12916948 5.9001462e-39
2.1803927 -1.3145288 -0.11261988 8.6649192e-39
2.2617402 -1.3332741 -0.13454722 9.9552965e-39
2.3346772 -1.3606423 -0.17255189 8.3890554e-39
1.4851332 -1.2160877 -0.17746429 7.0986894e-39
1.5564514 -1.2455533 -0.14637244 6.3611243e-39
1.6133578 -1.2814082 -0.12011959 5.6232005e-39
2.172195 -1.2822475 -0.10828616 1.0323716e-38
2.2574496 -1.2445405 -0.1427715 1.1522619e-38
2.3099113 -1.2892756 -0.18110397 8.6659954e-39
1.2842324 -1.1254838 -0.18836685 1.6587955e-39
1.3408732 -1.1296986 -0.18486913 8.5745397e-39
1.4475936 -1.1506602 -0.16900769 7.2838009e-39
1.529776 -1.1796011 -0.12871934 5.9923432e-39
2.1903319 -1.1158303 -0.14858899 1.2814797e-38
2.2210162 -1.1642883 -0.14758191 1.2169071e-38
1.273702 -1.0886505 -0.19367036 2.4889121e-39
1.3480117 -1.0357517 -0.1579335 3.4112299e-39
1.4170725 -1.0817385 -0.12697689 4.2409878e-39
2.1541305 -1.0503681 -0.14890842 1.3644195e-38
1.27876 -0.93254393 -0.16693372 3.1346472e-39
1.3203491 -0.9677968 -0.13694824 3.3190385e-39
2.0834558 -0.93003374 -0.15433137 1.180065e-38
2.1112282 -0.97763801 -0.14592265 1.1524061e-38
1.1814802 -0.83974791 -0.19440539 5.4398911e-39
1.2578149 -0.87393957 -0.14976051 4.240992e-39
1.3015016 -0.8565805 -0.10889509 4.516853e-39
1.9967432 -0.80505741 -0.11610907 7.1919598e-39
2.0306463 -0.8500219 -0.15259428 1.0325885e-38
1.9545032 -0.74708354 -0.15034513 1.1797032e-38
2.0015121 -0.79857111 -0.16581166 1.4935295e-38
1.8746879 -0.63525158 -0.14528489 3.2221401e-39
1.9099219 -0.68320727 -0.16253276 7.4602342e-39
1.7970723 -0.51385021 -0.15241605 8.3789423e-39
1.8323247 -0.56408215 -0.14906932 4.4192385e-39
1.7558557 -0.44780388 -0.14947486 8.6609424e-39
1.6789757 -0.32689831 -0.15252355 6.3556971e-39
1.7185491 -0.37336841 -0.14516395 8.1063196e-39
1.5914639 -0.20909373 -0.15002269 1.1607935e-38
1.6310766 -0.25829318 -0.14889157 9.2119399e-39
1.5582284 -0.14970577 -0.15086022 1.2068551e-38
1.6321666 -0.11987483 -0.10679722 7.1868969e-39
1.7210141 -0.11461627 -0.1009014 1.032262e-38
1.484991 -0.021390112 -0.18557107 6.6315665e-39
1.5465381 -0.054028191 -0.15371263 1.5385778e-38
1.6332177 -0.051149301 -0.11002141 1.2530621e-38
1.7146044 -0.057725098 -0.10122771 1.124566e-38
1.3977362 0.096455462 -0.19760326 8.7495409e-39
1.4545839 0.055215199 -0.17803551 1.280431e-38
1.5515938 0.050175808 -0.13441834 2.0826038e-38
1.6138202 0.015750825 -0.1086449 1.9166526e-38
1.3688543 0.15707062 -0.18949418 1.28025e-38
1.4454861 0.14517166 -0.15706491 1.787577e-38
1.5166317 0.15102956 -0.1169066 9.6761999e-39
1.3496166 0.25942844 -0.18124041 1.7137481e-38
1.4430448 0.25564763 -0.14445969 1.0597042e-38
1.5252599 0.23735212 -0.13050032 5.9912558e-39
1.2753372 0.37305921 -0.15937881 6.4511381e-39
1.3363769 0.3353633 -0.14322715 4.8856299e-39
1.4354517 0.31080335 -0.13812661 6.2667651e-39
1.2373364 0.45086569 -0.15046878 1.6595157e-39
1.0981141 0.58879232 -0.10534705 1.2025047e-39
1.1552029 0.55466175 -0.13558625 1.4758461e-39
1.2114488 0.52586496 -0.17277403 2.3045236e-39
1.1600416 0.6139527 -0.1617817 9.219535e-40
1.2172314 0.63505006 -0.19179551 2.9480811e-39
1.2841496 0.71814793 -0.19751257 5.2536767e-39
1.3458444 0.76965123 -0.19327365 7.6496771e-39
1.4043307 0.79809707 -0.17274882 3.4123047e-39
1.3894174 0.85221708 -0.14861 8.7578323e-39
1.4377047 0.86567861 -0.14925979 8.4826874e-39
1.3895576 0.93210846 -0.10792692 1.0694299e-38
1.4326823 0.94845515 -0.15616474 9.956014e-39
1.3925519 1.0907065 -0.10801347 1.004857e-38
1.4365212 1.0536228 -0.15174666 9.5868713e-39
1.3737525 1.1473448 -0.14762047 9.6794271e-39
1.4149991 1.1164467 -0.16853991 9.3102845e-39
2.3791404 -1.7082402 -0.0061093741 1.2722617e-38
1.7991807 -1.6007226 -0.042816471 9.9556651e-39
1.8197076 -1.6113515 -0.080747411 9.1251883e-39
2.1525857 -1.6174247 -0.009360156 1.2537146e-38
2.2434733 -1.6439325 -0.012124962 1.2721896e-38
2.3211956 -1.68215 -0.0089609167 1.2722256e-38
1.7896187 -1.5589238 -0.030455474 1.0140778e-38
1.809312 -1.5681958 -0.073575884 9.863831e-39
1.9874614 -1.5075881 -0.026649918 1.244459e-38
2.0435669 -1.535148 -0.024134394 1.2537144e-38
2.1369462 -1.5857079 -0.022070933 1.2629341e-38
1.6944307 -1.4148382 -0.035971325 5.2547754e-39
1.7169665 -1.4501351 -0.048926853 5.6235551e-39
1.8696734 -1.4175681 -0.040836569 1.2168362e-38
1.9515079 -1.4684031 -0.036068469 1.2352753e-38
2.0069952 -1.4953566 -0.034729429 1.2537144e-38
1.6713964 -1.3506501 -0.048820686 5.5306406e-39
1.7558912 -1.3243033 -0.055090681 1.2075804e-38
1.8269591 -1.3710431 -0.046288583 1.2260556e-38
2.1657562 -1.314991 -0.093732864 6.2678371e-39
2.2072816 -1.3444531 -0.098701239 5.4391596e-39
1.5849357 -1.2182759 -0.087545626 5.8994231e-39
1.6391224 -1.2707194 -0.066744074 6.8210165e-39
1.7185318 -1.2893751 -0.065640904 1.2076163e-38
2.0796347 -1.2341992 -0.050641473 1.1154922e-38
2.1378064 -1.2244 -0.062171847 1.1523337e-38
2.2257273 -1.2314416 -0.089884184 1.3091744e-38
1.4802841 -1.1142585 -0.09194009 6.8217451e-39
1.5485796 -1.1739825 -0.089241356 6.6373497e-39
2.0820196 -1.1996515 -0.01536531 1.078469e-38
2.1809895 -1.1566203 -0.043169662 5.2540509e-39
2.2071326 -1.1668847 -0.090524413 6.2700063e-39
1.377817 -1.0169283 -0.077626042 3.9644009e-39
1.4262891 -1.0693148 -0.090788417 5.3466165e-39
1.5914183 -1.0018536 -0.0030507811 1.4381763e-38
1.6584177 -1.0114383 -0.01494573 1.3828954e-38
2.153892 -1.0498998 -0.050188679 8.3865261e-39
1.2981839 -0.90390277 -0.096379027 3.9644065e-39
1.341154 -0.94426388 -0.054712456 4.056242e-39
1.5940884 -0.99706805 -0.0047530234 1.4197733e-38
1.6284901 -0.99468684 -0.0073270421 1.4013341e-38
2.0774529 -0.93514365 -0.046841204 6.1713142e-39
2.1110694 -0.98132855 -0.060593117 5.52847e-39
1.2894803 -0.86677921 -0.085361622 4.6097731e-39
1.3230268 -0.88119996 -0.044097722 4.4253832e-39
1.9854133 -0.81817466 -0.041459404 5.8947273e-39
2.0299728 -0.86618155 -0.054109655 5.8954476e-39
1.8950493 -0.70581007 -0.053443272 6.5375632e-39
1.9390795 -0.75397754 -0.04868874 6.0787585e-39
1.8685318 -0.65025061 -0.059106022 6.2620623e-39
1.9200712 -0.6368767 -0.015023717 1.2896528e-39
1.7960657 -0.5103175 -0.092632249 8.8370337e-39
1.8376141 -0.55604136 -0.071034282 1.0406506e-38
1.9533168 -0.54914033 -0.028307749 2.8548191e-39
1.7854674 -0.45727351 -0.092754364 1.2800329e-38
1.8248152 -0.44516131 -0.073963448 1.4554926e-38
1.9486152 -0.45267573 -0.032107253 6.2700119e-39
1.6919088 -0.30613321 -0.09351892 1.6765439e-38
1.7609831 -0.34476855 -0.083086789 1.317344e-38
1.8555983 -0.34575909 -0.046189155 5.4369918e-39
1.9289924 -0.36392668 -0.017041313 4.3342652e-39
1.6523765 -0.24424618 -0.088494495 1.0778894e-38
1.7340168 -0.27896348 -0.07094156 7.9248235e-39
1.8688716 -0.25992563 -0.04698956 2.0290185e-39
1.9289601 -0.23360217 -0.023436364 4.1498781e-39
1.5940729 -0.17591292 -0.097178832 3.8671508e-39
1.6249174 -0.17334938 -0.090891726 1.2074333e-38
1.755198 -0.12470473 -0.097552262 7.0075657e-39
1.8594836 -0.1508152 -0.07824064 3.2261198e-39
1.9478866 -0.16113529 -0.045041606 6.7277264e-39
2.0423355 -0.13131799 -0.026750552 3.5037871e-39
2.1017711 -0.10219447 -0.0030188214 4.0580412e-39
1.6471692 -0.019140642 -0.097362556 1.7507732e-38
1.7610792 -0.060489848 -0.096199907 6.2667665e-39
1.8389056 -0.081914783 -0.086151794 5.62176e-39
1.9544811 -0.085281886 -0.073953278 8.4737009e-39
2.067183 -0.072594941 -0.054220211 7.0994096e-39
2.1443155 -0.044213127 -0.031799518 5.4402498e-39
2.2007358 -0.032079674 -0.0031609666 4.7030491e-39
1.5825119 0.08175528 -0.09620899 2.0182486e-38
1.6486158 0.068401635 -0.055501036 1.594728e-38
1.7484257 0.038764402 -0.054444145 1.1707006e-38
1.8426679 0.03069637 -0.045644797 9.6797914e-39
1.9398566 0.019601267 -0.046349172 8.3901316e-39
2.0580108 0.0086254235 -0.046631653 4.1469676e-39
2.1556234 0.0063278857 -0.019664522 9.7730535e-39
1.542804 0.16017711 -0.057228614 1.3366891e-38
1.611852 0.11846762 -0.036423046 1.5765059e-38
1.3841898 0.28041753 -0.042328492 7.382811e-40
1.4385836 0.25436726 -0.055300131 2.3974367e-39
1.5320827 0.22608577 -0.051664256 1.1616623e-38
1.6031605 0.2116918 -0.0064644003 1.4473959e-38
1.2889453 0.39063317 -0.053840075 8.3083687e-40
1.3356808 0.34295905 -0.050647743 8.3083687e-40
1.2471485 0.45038053 -0.051334377 9.2303109e-40
1.0969818 0.59698206 -0.087837353 1.8546465e-40
1.1553429 0.56496829 -0.05535385 6.4644561e-40
1.211506 0.51894093 -0.036228649 6.4644561e-40
1.0968109 0.60324365 -0.076635152 2.7801762e-40
1.1203257 0.62710786 -0.021956624 8.3047533e-40
1.1856283 0.74062806 -0.01046717 2.7658409e-40
1.2018384 0.78146821 -0.014960568 3.6949578e-40
1.3529725 0.79620934 -0.045710105 8.391219e-39
1.2927713 0.86499828 -0.022373497 1.1342191e-38
1.3498054 0.86315984 -0.059667423 1.0695741e-38
1.4205842 0.85159534 -0.084146336 8.9440257e-39
1.3518381 0.94884759 -0.050453641 1.1156001e-38
1.4022987 0.99492568 -0.097300634 1.0970885e-38
1.374604 1.0583746 -0.048191302 1.0694661e-38
1.4027117 1.0349723 -0.096563391 1.0325876e-38
1.3414829 1.1252224 -0.05167101 1.0693941e-38
2.1872225 -1.7054855 0.062101003 1.2814454e-38
2.2482886 -1.7171439 0.077048346 1.3091041e-38
2.3551118 -1.7183228 0.067388661 1.309104e-38
2.4441268 -1.7204823 0.055588521 1.3090678e-38
2.5667629 -1.7265199 0.079402559 8.7560401e-39
2.6053736 -1.7524939 0.090345822 7.0021595e-39
1.8508315 -1.6108495 0.09577243 9.4957701e-39
1.9690195 -1.6448107 0.090649098 1.2537508e-38
2.0476046 -1.6542858 0.081800722 1.2814455e-38
2.1626878 -1.6730394 0.043135874 1.2721898e-38
2.2442029 -1.6750209 0.036617033 1.2814454e-38
2.3246958 -1.6908513 0.032592349 1.2998485e-38
2.4442751 -1.6770052 0.036616113 1.3275068e-38
2.5683427 -1.650588 0.078186646 6.7237621e-39
1.761471 -1.5487211 0.041883502 9.2199049e-39
1.8247064 -1.5780823 0.090041056 1.0786508e-38
2.4731023 -1.5189481 0.079344869 9.9480798e-39
2.5301237 -1.575415 0.085066266 9.3030692e-39
1.6920379 -1.4271781 0.033375215 4.609043e-39
1.7088525 -1.4731218 0.038285162 4.5175676e-39
2.3815444 -1.4087309 0.064144768 7.4588006e-39
2.434984 -1.4642951 0.076025531 8.7488164e-39
1.6792924 -1.3705127 0.020771759 5.254411e-39
2.2848709 -1.3116961 0.040961232 6.7248425e-39
2.3450084 -1.3518895 0.071897127 5.1582455e-39
2.099746 -1.2107922 1.3312023e-05 1.1430422e-38
2.1801577 -1.2164274 0.0081841741 7.2801785e-39
2.2516394 -1.2455095 0.055171855 5.1589672e-39
2.3053656 -1.2830095 0.08756277 3.3168679e-39
2.1810436 -1.1467119 0.02600684 5.2500796e-39
2.2482538 -1.1621902 0.074046806 5.8050611e-39
2.3257151 -1.1460563 0.096352249 7.9262766e-39
1.5963624 -1.0078775 0.010375116 1.4934575e-38
1.6334305 -1.0073316 0.012487189 1.4658348e-38
2.141736 -1.0468357 0.032634612 4.5135978e-39
2.2301214 -1.0628783 0.077592283 6.6351763e-39
2.3307812 -1.0632616 0.094929315 1.2262338e-38
1.5953813 -0.99820775 0.010368818 1.484238e-38
1.6268246 -0.99283946 0.0079721166 1.4474317e-38
2.0684323 -0.94125736 0.025099693 3.0406397e-39
2.1278403 -0.9700039 0.055706941 5.8068589e-39
2.2283444 -0.98403466 0.084471792 8.0202701e-39
1.9845431 -0.83145958 0.026146527 4.6061381e-40
2.0301545 -0.8473953 0.057775397 1.3825687e-39
2.1052108 -0.88745719 0.097200811 1.8474859e-40
1.9740469 -0.7442655 0.039413203 3.6877972e-40
2.0087953 -0.76425302 0.079894952 3.6877972e-40
1.9425256 -0.64395678 0.044851679 9.2231223e-40
2.0115995 -0.61228329 0.091140412 7.3791817e-40
1.9863539 -0.56882197 0.030865556 1.1067035e-39
2.0249522 -0.5346396 0.062276434 1.106342e-39
1.9932653 -0.43728739 0.0088872015 1.0051829e-38
2.0320687 -0.45394757 0.056256119 2.8584191e-39
1.9713593 -0.34233627 0.034848496 7.8391327e-39
2.0164316 -0.363534 0.080135554 1.9357439e-39
1.9727318 -0.25618881 0.045296255 7.099411e-39
2.0092478 -0.2099281 0.06220834 4.8863614e-39
2.0537941 -0.1627769 0.048711687 5.439538e-39
2.1189215 -0.11239616 0.051222395 7.191978e-39
2.1737111 -0.07344503 0.050562382 7.9302591e-39
2.2108116 -0.02386608 0.047614753 5.071833e-39
1.478843 0.088864684 0.065635867 2.5821937e-39
1.5493708 0.085941307 0.029010359 1.0510637e-38
1.6511041 0.071522899 0.018681906 1.4291011e-38
1.7521294 0.047287304 0.031776823 1.1248923e-38
1.8376747 0.033881143 0.039138973 1.1156372e-38
1.9477687 0.031579766 0.0587883 9.220628e-39
2.0513651 0.022508951 0.063794315 9.035878e-39
2.1567678 0.015414217 0.061492767 8.8518455e-39
2.2237098 0.0075813429 0.067490019 8.2064831e-39
1.4955643 0.10543463 0.059786335 1.6602402e-39
1.5468841 0.1524068 0.050148729 5.2551411e-39
1.6106786 0.11345948 0.0053693787 1.5857612e-38
1.378952 0.28163218 0.047776826 6.4608547e-40
1.4351425 0.26303273 0.05020551 1.8446217e-39
1.5736407 0.24491249 0.055103499 4.1491523e-39
1.6061523 0.22783417 0.037267685 4.9781927e-39
1.2890747 0.38591409 0.051061835 8.3083687e-40
1.328599 0.33680531 0.048814088 7.3864124e-40
1.2534417 0.45016617 0.049362384 8.3083687e-40
1.1768494 0.58857483 0.041756973 9.230325e-40
1.2173234 0.53918231 0.05193663 9.230325e-40
1.1259077 0.63510495 0.052136824 3.6985872e-40
1.1785901 0.74484342 0.053416725 1.8438846e-40
1.2032722 0.79010218 0.031741083 3.6985591e-40
1.1954136 0.80358213 0.09055911 1.3843624e-39
1.2334468 0.83056271 0.06977281 5.1647363e-39
1.3073548 0.895064 0.057408322 1.2356703e-38
1.3568376 0.9532091 0.046932772 1.1618058e-38
1.3899599 1.0612428 0.039336938 1.2354902e-38
1.4042819 1.0447265 0.073252067 1.2723685e-38
1.3704562 1.1393931 0.050636794 1.2170513e-38
2.0637124 -1.8188425 0.18510351 1.1523365e-38
1.985461 -1.7273362 0.12301897 1.1893224e-38
2.0333183 -1.7472448 0.16229381 1.2261284e-38
2.1508498 -1.7192016 0.17332025 1.2260922e-38
2.2539234 -1.7191091 0.14590323 1.3367625e-38
2.3521404 -1.7423384 0.14722082 1.3367625e-38
2.4517927 -1.7566047 0.14554243 1.3367622e-38
2.5570598 -1.7536054 0.15254924 1.2445306e-38
2.6128931 -1.7481855 0.14899476 1.0968734e-38
1.8825912 -1.6585735 0.10437936 1.041701e-38
1.9783566 -1.6787471 0.11322424 1.2446033e-38
2.0479693 -1.6750311 0.13950172 1.3183598e-38
2.1427782 -1.6845921 0.15107471 1.3275431e-38
2.2183864 -1.6952732 0.17571248 1.3366905e-38
2.5615873 -1.6532608 0.15044011 7.0961586e-39
2.4786105 -1.5279822 0.15626943 8.2025062e-39
2.5149567 -1.5762455 0.14747559 9.3095642e-39
2.389915 -1.4157976 0.13133129 4.331017e-39
2.4225953 -1.4549458 0.15717183 6.3567985e-39
2.349535 -1.3450062 0.14891908 4.5157684e-39
2.40254 -1.3981034 0.19411494 9.1230219e-39
2.2970929 -1.25737 0.10624894 2.5793056e-39
2.3548927 -1.2641798 0.14828385 8.2043096e-39
2.4374044 -1.2264992 0.16490686 7.9277227e-39
2.5248451 -1.2137651 0.18145879 7.6507743e-39
2.359683 -1.1489488 0.10935404 1.1892484e-38
2.4401562 -1.1573595 0.12840511 8.573811e-39
2.5441303 -1.159114 0.16913922 7.0986866e-39
2.3685467 -1.0496049 0.1263473 1.1063456e-38
2.4403539 -1.0590124 0.16020833 5.6228474e-39
2.5072033 -1.0939292 0.16881561 4.7938056e-39
2.1610246 -0.91341192 0.13160998 9.2123323e-40
2.2558732 -0.9503181 0.15372846 1.8424693e-39
2.3587301 -0.94415987 0.18505131 1.3089589e-38
2.408762 -0.99248731 0.19392428 1.5009871e-38
2.0633318 -0.83056164 0.11932582 4.6025648e-40
2.1342485 -0.8659932 0.13285732 1.1056231e-39
2.2476082 -0.83790463 0.17455819 1.752426e-39
2.3269045 -0.84064621 0.18616971 4.4260937e-39
2.0403728 -0.75345409 0.11982053 5.5316958e-40
2.1461694 -0.75871998 0.14874198 1.382926e-39
2.2603106 -0.74389023 0.1759574 5.3476856e-39
2.3074026 -0.79006082 0.18684059 5.901221e-39
1.9953893 -0.6751889 0.10562241 8.301138e-40
2.045186 -0.64533472 0.11712658 2.1204939e-39
2.1652861 -0.63227332 0.15584405 2.1212113e-39
2.2203226 -0.66595596 0.18016733 4.6104863e-39
2.0790553 -0.54883546 0.10937607 3.5034255e-39
2.1570511 -0.55454427 0.14515847 2.9495259e-39
2.2255244 -0.55612081 0.18529505 4.3317162e-39
2.3158848 -0.50954592 0.19450983 8.9425389e-39
2.0710351 -0.44864634 0.12287354 1.4740441e-39
2.1496563 -0.4604767 0.15544392 2.7633241e-39
2.263025 -0.44433531 0.1739696 1.6493475e-38
2.353287 -0.46533766 0.19083615 1.5297139e-38
1.9986992 -0.30222812 0.10990605 1.5662355e-39
2.0346487 -0.35058218 0.12212222 2.0264906e-39
2.1463332 -0.34117615 0.15563583 9.859061e-39
2.2588599 -0.35508892 0.17746194 1.483687e-38
2.3305128 -0.36531773 0.19367898 1.0970156e-38
1.9914514 -0.26135463 0.11221531 2.9477182e-39
2.0397849 -0.24415736 0.13232046 1.1795157e-38
2.1475716 -0.25960997 0.16158971 2.0554044e-38
2.2481449 -0.25422841 0.17843951 2.1106893e-38
2.336082 -0.22691062 0.18670815 2.1568972e-38
2.4150379 -0.21148023 0.19860812 2.1572986e-38
2.0580707 -0.16634728 0.1158969 4.6990568e-39
2.132987 -0.13243161 0.12909515 1.0689186e-38
2.2403393 -0.14644191 0.15627532 2.1294532e-38
2.3389287 -0.18339255 0.17737935 2.0276052e-38
2.1686451 -0.076521434 0.11568663 5.8068365e-39
2.2327018 -0.043450356 0.1231334 1.4014403e-38
2.3527508 -0.013201605 0.13162686 2.0840178e-38
2.4462106 -0.00777615 0.14915584 2.1670652e-38
2.5603511 -0.0062953327 0.16626696 2.213127e-38
2.6507707 -0.0056631439 0.18404004 2.2499332e-38
2.7305195 -0.012638622 0.19567348 2.2590809e-38
1.4926169 0.089591347 0.14523526 6.7320802e-39
1.5008686 0.094017304 0.17214318 5.4413372e-39
2.2787921 0.044825576 0.10937357 1.9365781e-38
2.3497498 0.051745724 0.13597837 2.1485908e-38
2.4431367 0.05352889 0.17160253 2.2315302e-38
2.5392883 0.02361027 0.18207879 2.2407138e-38
2.6355715 0.0058561419 0.19140582 2.2407497e-38
1.4984808 0.10116464 0.14007722 9.230339e-40
1.5375409 0.14998899 0.15082178 7.3828531e-40
1.3759614 0.28588209 0.14199966 7.3864124e-40
1.4415581 0.27359578 0.15521498 3.6889e-39
1.5725114 0.24272016 0.1505852 7.3828391e-40
1.293624 0.38941815 0.11600225 9.230325e-40
1.3315152 0.34604761 0.15134047 1.0152281e-39
1.2727264 0.45802024 0.14080591 1.1074252e-39
1.3106022 0.42419377 0.17943874 1.107065e-39
1.1911302 0.59535408 0.12974134 1.384012e-39
1.233458 0.54918671 0.15025868 1.2918164e-39
1.0998068 0.62473488 0.12278078 4.6205435e-40
1.1356388 0.63802606 0.14711128 1.1070636e-39
1.2118191 0.61097687 0.18936525 1.6606003e-39
1.1617632 0.75291985 0.15070257 7.382797e-40
1.1846617 0.80319881 0.10453472 3.043525e-39
1.2737399 0.87134516 0.1031528 1.2448539e-38
1.3032385 0.89782572 0.12531964 1.3093549e-38
1.3295599 0.94792539 0.14920439 1.3185023e-38
1.3796911 1.0619203 0.15196992 1.198648e-38
1.4028076 1.0546423 0.10606652 1.2908436e-38
1.356077 1.1337528 0.14840373 1.2539655e-38
2.1798506 -1.9184136 0.24855186 5.3462577e-39
2.2526643 -1.9490306 0.2773602 5.0678604e-39
2.335109 -1.9221107 0.29106042 6.5408156e-39
2.0932691 -1.8520067 0.20931211 9.3099481e-39
2.1397636 -1.8428347 0.22466023 7.7426182e-39
2.2514856 -1.8539776 0.25036687 6.2664035e-39
2.3568509 -1.8505807 0.27135926 6.3567887e-39
2.4490423 -1.8235046 0.27078798 7.2787408e-39
2.5544736 -1.8170257 0.26275495 7.7400819e-39
2.1548269 -1.7682027 0.2102465 9.9549504e-39
2.2477016 -1.7607563 0.22026436 9.5865238e-39
2.3480797 -1.7713706 0.22324644 1.041592e-38
2.4455702 -1.7771925 0.21575521 1.1522985e-38
2.5802734 -1.7558976 0.25197792 8.0170331e-39
2.6041958 -1.7635841 0.23198275 9.1241037e-39
2.5504465 -1.649165 0.25113654 7.5553361e-39
2.4888206 -1.5264354 0.22493188 1.0043532e-38
2.5280509 -1.5614642 0.26116389 8.0116241e-39
2.4552767 -1.4509228 0.23471634 6.1684388e-39
2.5538743 -1.4493052 0.2827462 8.7445018e-39
2.6144836 -1.4139022 0.29411608 8.1963657e-39
2.3825028 -1.3415295 0.20724611 7.18872e-39
2.4480796 -1.3649095 0.23057655 4.6047228e-39
2.545548 -1.3566574 0.25095394 5.0617367e-39
2.6515157 -1.359102 0.2664685 6.7216069e-39
2.7427306 -1.3402765 0.27890563 7.5538773e-39
2.8038259 -1.3081578 0.29611152 7.3694847e-39
2.3887062 -1.2897282 0.20333499 8.8507622e-39
2.4489596 -1.265542 0.20760952 8.3887065e-39
2.5572317 -1.2412125 0.21342848 8.388338e-39
2.6537433 -1.2439044 0.23467349 7.0032357e-39
2.7469168 -1.2560016 0.26662946 6.5418946e-39
2.8066823 -1.2777312 0.29259577 7.3709294e-39
2.576699 -1.1455591 0.22512145 5.0696806e-39
2.6408212 -1.1671189 0.25295952 4.2392067e-39
2.7089505 -1.1947212 0.29019529 4.0544539e-39
2.4495559 -1.0333536 0.24052237 5.2544446e-39
2.5272324 -1.0826371 0.26186725 1.8439322e-39
2.3770173 -0.93761182 0.25064224 1.2629684e-38
2.4062366 -0.99349964 0.24819843 9.5832924e-39
2.2957959 -0.84193647 0.20205012 7.3791396e-40
2.3636346 -0.85227925 0.25000525 2.6740222e-39
2.1773832 -0.70932478 0.28472838 2.5814692e-39
2.2682998 -0.73982269 0.24430799 5.9008664e-39
2.3119678 -0.78725731 0.24250275 5.3476941e-39
2.1762021 -0.66761738 0.27047279 1.5676802e-39
2.2264535 -0.6385566 0.24319124 3.2275603e-39
2.30158 -0.60000902 0.29885086 2.9516895e-39
2.2610128 -0.57493198 0.24273276 1.1070636e-39
2.334832 -0.53496689 0.25139192 2.2130468e-39
2.4147398 -0.51175112 0.25911367 1.1894654e-38
2.3918469 -0.48055089 0.2046546 1.3646726e-38
2.4368525 -0.45026636 0.25333941 8.022082e-39
2.2835026 -0.31043431 0.20826359 1.4287425e-38
2.3553174 -0.33899286 0.21584141 1.0600673e-38
2.4489818 -0.36093882 0.26183724 1.1524793e-38
2.5156479 -0.32010481 0.2595098 7.1923339e-39
2.2766867 -0.29094714 0.20456545 2.2493909e-38
2.3509066 -0.27177066 0.211419 2.2678666e-38
2.4454324 -0.23531048 0.20869647 2.1667007e-38
2.5039282 -0.23010494 0.21494687 2.16681e-38
2.4396181 -0.19957116 0.20062956 2.0651402e-38
3.3879864 -0.11201851 0.26536062 2.1025651e-38
3.4471159 -0.12028126 0.28369853 2.102637e-38
3.521349 -0.13319035 0.2959308 2.1118205e-38
2.7712388 -0.011195008 0.20537449 2.2407498e-38
2.8506758 -0.014021926 0.21922173 2.2315663e-38
2.9512444 -0.015305704 0.23704974 2.2131632e-38
3.0521457 -0.016290503 0.25467655 2.19476e-38
3.1484346 -0.021969549 0.26722214 2.1855765e-38
3.2558904 -0.034431539 0.27310815 2.1855406e-38
3.3493574 -0.064043209 0.27552587 2.1579181e-38
3.4254849 -0.085185625 0.2892549 2.1579181e-38
1.4876992 0.095403418 0.24059714 1.0789407e-38
1.5005374 0.098056078 0.20674475 5.625011e-39
2.4722636 0.089637883 0.22994766 2.1395148e-38
2.5486479 0.070621371 0.2428529 2.157954e-38
2.6467035 0.047178015 0.24852426 2.1671375e-38
2.7435713 0.031281617 0.25660452 2.1579538e-38
2.8440559 0.020995039 0.26680169 2.1579538e-38
2.9432797 0.011304619 0.2731255 2.1487342e-38
3.0386803 0.0056629474 0.2849749 2.1487342e-38
3.1031985 0.001326611 0.29549295 2.1579537e-38
1.4890819 0.11159588 0.2821072 4.3349925e-39
1.5312216 0.15267533 0.24761741 1.1992635e-39
2.460427 0.10513167 0.27629682 2.1486984e-38
1.3911232 0.29813579 0.20681481 8.3048234e-40
1.4329052 0.29162484 0.21290566 8.3084387e-40
1.5715317 0.24428679 0.24366528 1.6613262e-39
1.6215006 0.28095508 0.28475827 3.3215692e-39
1.3588083 0.35006189 0.21044734 1.1067105e-39
1.4224553 0.3790583 0.23429453 3.1350172e-39
1.5644516 0.3269408 0.25581911 3.5070549e-39
1.644354 0.32591188 0.28565833 2.6769271e-39
1.2967535 0.49368748 0.20167799 1.3836547e-39
1.3466047 0.45326224 0.21769662 2.2134126e-39
1.4468559 0.46228361 0.26537737 2.3077774e-39
1.5543051 0.4359687 0.27831542 8.958892e-39
1.6151303 0.42696401 0.29295531 9.0507247e-39
1.2800016 0.56276029 0.20883119 1.7524358e-39
1.3398088 0.56019914 0.23057105 2.3978066e-39
1.4438125 0.54531735 0.26909399 1.0148722e-39
1.5045646 0.59636921 0.29560092 1.0155925e-39
1.1754074 0.67579073 0.21471983 1.199618e-39
1.247003 0.64496434 0.23510472 1.2918178e-39
1.3399478 0.61418325 0.26401231 1.3840134e-39
1.4558762 0.61395895 0.2812821 1.1996236e-39
1.51082 0.6110822 0.29419911 1.107428e-39
1.1807486 0.75781596 0.2245235 1.2914521e-39
1.2108207 0.74272287 0.25332391 1.568039e-39
1.1853387 0.80946296 0.23814146 1.6605919e-39
1.2122035 0.82995683 0.25769272 1.9368159e-39
1.3389459 0.96328408 0.24883361 1.3646e-38
1.3839608 1.0591209 0.24911909 1.346161e-38
1.3626274 1.1320229 0.25106981 1.3277219e-38
2.2670927 -1.9723175 0.35164899 5.8965336e-39
2.3488033 -1.9341058 0.3501547 6.6326483e-39
2.3901799 -1.8800913 0.35123712 7.1854564e-39
2.4482431 -1.8398272 0.35069939 7.4616831e-39
2.5393453 -1.8132616 0.34749994 7.3687672e-39
2.5811892 -1.7512273 0.35222131 7.8283048e-39
2.588927 -1.6498295 0.35122818 8.8406519e-39
2.6003911 -1.6007731 0.39767408 9.1176003e-39
2.5847793 -1.5554715 0.33292541 9.1165185e-39
2.6058912 -1.5430646 0.37925348 9.1175989e-39
2.5884593 -1.4717917 0.31385523 9.0246844e-39
2.6287403 -1.4426714 0.35581568 9.0261221e-39
2.675396 -1.3911184 0.34470522 8.382552e-39
2.7527449 -1.3622653 0.34680429 7.9226557e-39
2.8214555 -1.3210419 0.36124769 7.5538759e-39
2.7770903 -1.2182631 0.34458616 5.896528e-39
2.8402281 -1.2760813 0.35041559 7.2780121e-39
2.5892346 -1.1056831 0.33252177 4.6987135e-39
2.6511853 -1.1373028 0.35379717 6.8188444e-39
2.7283242 -1.1831821 0.3529326 5.3429941e-39
2.4614782 -1.0214109 0.35025543 9.6790544e-39
2.5420973 -1.0730406 0.35938436 7.6503974e-39
2.385278 -0.93101335 0.34325138 1.1523323e-38
2.4184027 -0.97849345 0.36144388 9.5872147e-39
2.3777637 -0.85816449 0.3494139 3.6870923e-39
2.1690226 -0.71678656 0.3392655 7.0990467e-39
2.2480011 -0.76053011 0.34912917 1.1799935e-38
2.3330944 -0.76977593 0.33859196 7.4671061e-39
2.4281321 -0.70762312 0.3650814 1.4383213e-38
2.0967197 -0.64642352 0.30854803 3.0420872e-39
2.1230316 -0.6691528 0.35448748 2.1208498e-39
2.2761698 -0.66419494 0.30757102 1.2816253e-38
2.3552265 -0.64916289 0.31615564 1.4660522e-38
2.4431489 -0.6512962 0.36594608 1.5121137e-38
2.3788805 -0.53167939 0.34404317 1.1710265e-38
2.4238107 -0.56250185 0.35581735 1.4937107e-38
2.3801575 -0.47702944 0.36661494 3.1350003e-39
2.4416628 -0.44200081 0.33777609 1.0049664e-38
2.505863 -0.42378449 0.39210978 1.6411872e-38
2.4801731 -0.37074152 0.33323377 1.383004e-38
2.5245502 -0.34700683 0.3676123 9.9578315e-39
2.6288736 -0.32691976 0.38496679 7.4689208e-39
2.7428162 -0.33516887 0.39769265 5.9941523e-39
3.5610638 -0.12302992 0.31137061 2.1118566e-38
3.6560407 -0.1335175 0.33431694 2.1118207e-38
3.747541 -0.14478116 0.36569226 2.121076e-38
3.8155534 -0.1455532 0.39229327 2.1394791e-38
3.1653132 -0.0032133134 0.30369908 2.1486982e-38
3.2537544 -0.0084397113 0.31538188 2.1486982e-38
3.360564 -0.024069099 0.31967333 2.1486984e-38
3.4493611 -0.046504326 0.32802066 2.1486984e-38
3.5509467 -0.0570889 0.34635967 2.1671374e-38
3.6514192 -0.06493865 0.36680672 2.1763568e-38
3.7372775 -0.074334912 0.3882238 2.1947599e-38
1.4584478 0.099513732 0.31561586 1.1988686e-38
2.558727 0.094192147 0.31237036 2.1487704e-38
2.6500988 0.08512488 0.32358342 2.1579898e-38
2.7518265 0.076100677 0.33301955 2.1672092e-38
2.8499324 0.071089357 0.34765503 2.1671732e-38
2.9501832 0.056478571 0.34632659 2.1763927e-38
3.0503967 0.045161471 0.34973621 2.1763927e-38
3.1468155 0.032716285 0.35102668 2.1763566e-38
3.2445855 0.027654342 0.36396247 2.1947598e-38
3.346931 0.019421164 0.37329221 2.2039434e-38
3.4515641 0.011852985 0.3843174 2.2039434e-38
3.5436935 0.0032068975 0.39197314 2.213127e-38
1.4771982 0.1318108 0.32292256 2.582921e-39
1.5249928 0.17735931 0.31840372 2.490368e-39
2.487071 0.1067063 0.30858994 2.1579178e-38
2.5545654 0.10665675 0.34055477 2.1486984e-38
2.6422772 0.1053034 0.37066832 2.1395148e-38
2.7344396 0.10187621 0.385804 2.1302594e-38
1.5786924 0.22152078 0.32116917 3.1361018e-39
1.6391718 0.2729395 0.3200911 3.7825502e-39
1.677026 0.3263905 0.3149842 3.0453495e-39
1.7128098 0.36974129 0.31218517 2.4021493e-39
1.5939435 0.44104028 0.30124754 8.4071588e-39
1.6422322 0.44042084 0.31429952 9.1429218e-39
1.4940596 0.59412169 0.3057816 1.1081496e-39
1.5067122 0.58697468 0.30318978 8.312012e-40
1.4911747 0.60759819 0.30487517 1.1081482e-39
1.3794421 0.98029113 0.32508382 1.3738196e-38
1.4389946 0.94895047 0.36198419 1.4014784e-38
1.5666412 0.93752301 0.37852255 8.5763334e-39
1.6205212 0.95241773 0.36986002 7.378879e-39
1.3918978 1.0422171 0.32164073 1.3553804e-38
1.4100761 1.0587337 0.36699927 1.3553806e-38
1.3859289 1.150933 0.3434951 1.3277219e-38
1.4066063 1.1172743 0.37811533 1.3185023e-38
1.3941157 1.2052857 0.38002476 1.3185023e-38
2.1749291 -1.9187651 0.43763036 6.3578719e-39
2.2530286 -1.9319475 0.42702603 6.6333714e-39
2.3358848 -1.9158345 0.42038396 7.1851004e-39
2.1644218 -1.8809168 0.47904843 6.9099569e-39
2.2504189 -1.8738035 0.47599229 7.1858193e-39
2.3622544 -1.8704647 0.45843413 7.4616845e-39
2.447391 -1.8327392 0.44828138 7.6457156e-39
2.5196204 -1.8083793 0.4436878 7.6446352e-39
2.5666742 -1.7534635 0.45167744 7.6446338e-39
2.5958564 -1.6707389 0.44327968 8.2892816e-39
2.606957 -1.6257792 0.45889062 8.1974447e-39
2.6213541 -1.5487539 0.45117903 8.6580613e-39
2.657882 -1.4486611 0.44942182 8.6591389e-39
2.6915467 -1.3953967 0.43947932 8.659499e-39
2.7458384 -1.3748217 0.45026872 8.475828e-39
2.8480623 -1.3367093 0.44912353 7.8311817e-39
2.9166641 -1.3128378 0.47780111 7.1865396e-39
2.7828391 -1.2128179 0.44426039 4.9745703e-39
2.8628824 -1.2649966 0.43872786 5.527021e-39
2.9106259 -1.2927601 0.46502188 5.8039666e-39
2.5873849 -1.1068473 0.44266585 4.4235685e-39
2.6450064 -1.1335387 0.45601881 4.2388186e-39
2.7295799 -1.1830454 0.43958631 6.173475e-39
2.4812841 -1.0182881 0.4180437 6.0845276e-39
2.5455923 -1.0546491 0.44808421 3.0410026e-39
2.6163473 -1.0804396 0.49054644 1.750268e-39
2.3969107 -0.92235595 0.40850282 3.6870951e-39
2.4364541 -0.94303626 0.45081607 5.7150304e-39
2.5108166 -0.96532494 0.49186569 9.6790684e-39
2.3739254 -0.8426792 0.42764279 8.7531506e-39
2.4328246 -0.85863823 0.46039218 8.2965067e-39
2.5070448 -0.8421402 0.49517512 1.3921511e-38
2.1795764 -0.70972121 0.40247601 1.3924036e-38
2.2686427 -0.75723684 0.4088296 1.2997388e-38
2.3353066 -0.78722447 0.42773825 1.2353098e-38
2.4380527 -0.71809077 0.42511746 1.4383576e-38
2.1421342 -0.63504136 0.41641948 2.4896337e-39
2.2535374 -0.61835498 0.4462451 4.5179376e-39
2.3466411 -0.62909025 0.46520776 9.9589077e-39
2.4479227 -0.65147853 0.42565852 1.530517e-38
2.2717297 -0.58483416 0.44446251 3.1346444e-39
2.341373 -0.54374284 0.43461421 3.8725668e-39
2.4408178 -0.56311411 0.43618459 1.3738205e-38
2.5403783 -0.51961529 0.48097613 1.4752357e-38
2.3653457 -0.48907569 0.41274729 2.950965e-39
2.4572184 -0.47713086 0.41718668 1.5028941e-38
2.5291438 -0.44524178 0.4539977 1.6411873e-38
4.8494601 -0.42390877 0.48664895 1.2815575e-38
2.549696 -0.35525995 0.45239672 1.1802099e-38
2.6470156 -0.3158282 0.44756839 5.4409785e-39
2.7447424 -0.32535836 0.43138632 3.8736542e-39
2.8053257 -0.32661223 0.42902175 3.0438935e-39
4.8725266 -0.38873145 0.4878692 1.2999966e-38
4.9475937 -0.36040995 0.49109679 1.2908132e-38
5.0479355 -0.32446641 0.49627399 1.3001407e-38
2.5822012 -0.29154676 0.48854208 3.5055933e-39
2.6450934 -0.29400295 0.45745009 2.8595065e-39
4.1469059 -0.20163512 0.48163468 2.0655431e-38
4.2116156 -0.20478149 0.49825373 2.0563954e-38
5.054635 -0.29681656 0.49589702 1.290993e-38
3.8667786 -0.13667046 0.40935314 2.1487344e-38
3.9520843 -0.14646965 0.43244836 2.176285e-38
4.0492177 -0.14928758 0.46122909 2.176285e-38
4.1352062 -0.15323433 0.48702678 2.2039077e-38
3.6627333 -0.0063672997 0.40690503 2.2315661e-38
3.7622285 -0.035453908 0.4129093 2.213127e-38
3.851649 -0.048501644 0.43324617 2.2039074e-38
3.9464791 -0.049554836 0.4628264 2.2315301e-38
4.040668 -0.06760855 0.48603913 2.2315301e-38
4.1180496 -0.096270315 0.49906638 2.2315661e-38
2.8573487 0.098259337 0.41259879 2.1487342e-38
2.9489455 0.095637374 0.42199346 2.1395147e-38
3.0531912 0.090849511 0.4349871 2.1579177e-38
3.1522784 0.084279664 0.44361219 2.1671013e-38
3.2510965 0.075121582 0.44997922 2.1763208e-38
3.3469651 0.0617253 0.44995385 2.1855402e-38
3.4462438 0.050508875 0.45355096 2.1855403e-38
3.5480063 0.034965552 0.45154887 2.1947239e-38
3.6469884 0.022226354 0.45687395 2.2039433e-38
3.7427349 0.013645365 0.46944457 2.2039074e-38
3.8422835 0.0059431344 0.48352188 2.2039074e-38
3.9208765 0.0016761667 0.49779695 2.2039074e-38
2.6782005 0.10803483 0.40893054 2.1487701e-38
2.7534459 0.10575479 0.4221679 2.1579537e-38
2.8500264 0.1060468 0.44759566 2.1671374e-38
2.948072 0.10525502 0.46632317 2.1671374e-38
3.034364 0.10447093 0.48217514 2.1763568e-38
3.1237326 0.10272296 0.49571687 2.1855403e-38
1.4684912 0.96464914 0.44423422 1.4199174e-38
1.5619483 0.94370258 0.44657794 8.8529202e-39
1.609841 0.95009542 0.47912699 7.4710802e-39
1.4362049 1.0495574 0.4509325 1.3646001e-38
1.3995825 1.1806127 0.40317678 1.3185025e-38
1.4131403 1.1470664 0.45093971 1.3092828e-38
1.3998245 1.2082443 0.40188426 1.309283e-38
1.4039695 1.2093171 0.45415181 1.2908076e-38
2.0999045 -1.8667603 0.59984505 5.0660513e-39
2.155894 -1.8608856 0.55322027 6.3567845e-39
2.2492352 -1.8345355 0.54998451 6.8173983e-39
2.3512039 -1.8246148 0.54562438 7.1854578e-39
2.4435296 -1.8106977 0.53194612 7.4613244e-39
2.5060081 -1.8034031 0.51006037 7.276573e-39
2.2687311 -1.7933748 0.59545732 5.4344709e-39
2.3576026 -1.7898422 0.59442681 6.2635057e-39
2.4624527 -1.7854685 0.57986474 7.0925447e-39
2.5387526 -1.7459034 0.54632884 7.1847389e-39
2.5712051 -1.6584557 0.5617817 7.0929006e-39
2.6115806 -1.6221459 0.53296673 7.6453513e-39
2.5814128 -1.5717907 0.59172541 6.4471752e-39
2.6327183 -1.543287 0.55034012 7.7375469e-39
2.6766579 -1.4539508 0.54792863 8.0148527e-39
2.710921 -1.40784 0.56933969 7.7386273e-39
2.6979434 -1.398748 0.50341088 8.660578e-39
2.754777 -1.3829055 0.54709321 8.0159317e-39
2.8484287 -1.3506701 0.5506314 7.647152e-39
2.926497 -1.321596 0.55220318 6.5411701e-39
2.7866547 -1.2075368 0.51730746 5.5284728e-39
2.8550949 -1.2413335 0.56305015 6.6337287e-39
2.9150729 -1.2893885 0.54840291 4.2370039e-39
2.6773264 -1.1259861 0.50672954 3.0406383e-39
2.7509978 -1.1426191 0.55989748 6.7273677e-39
2.8074985 -1.193481 0.57200754 7.7404336e-39
2.5655901 -1.0172132 0.55479693 8.2954137e-39
2.6570778 -1.0679401 0.55510986 6.2667539e-39
2.7061052 -1.0947802 0.56001258 6.4511409e-39
2.4793973 -0.94896621 0.54360777 9.5872287e-39
2.5511563 -0.9383806 0.55139798 1.2077234e-38
2.6073492 -0.91813344 0.58986187 1.346053e-38
2.4944615 -0.82793558 0.50759387 1.3829677e-38
2.5559664 -0.84343129 0.55000758 1.4106262e-38
2.6091084 -0.84538561 0.59376645 1.4290292e-38
2.4841471 -0.70673114 0.52146113 1.5030025e-38
2.5676584 -0.78171176 0.54018933 1.4475047e-38
2.6474376 -0.75553626 0.57979292 1.5304805e-38
2.4528008 -0.66346228 0.51396275 1.4661242e-38
2.5503612 -0.64974368 0.53424144 1.5950894e-38
2.6504526 -0.6419757 0.57411993 1.6687738e-38
2.4828205 -0.59349942 0.5050447 1.6872493e-38
2.5796626 -0.53676391 0.51733941 1.7333471e-38
2.617362 -0.55181718 0.56252742 1.7425306e-38
2.5647037 -0.44673994 0.55028427 1.7149078e-38
2.6015303 -0.49771321 0.58141315 1.797848e-38
4.8542738 -0.42133129 0.51558048 1.2723379e-38
4.9617457 -0.42621341 0.54881662 1.2723738e-38
5.0699944 -0.43416038 0.57060766 1.2447151e-38
5.1583695 -0.4542509 0.57427293 1.2631543e-38
5.2657642 -0.46871793 0.58878386 1.2631543e-38
5.3504806 -0.48787513 0.59439206 1.2631544e-38
2.5629461 -0.35043082 0.54926282 1.2263075e-38
4.8771296 -0.3898634 0.52392513 1.2815575e-38
4.9518666 -0.36239597 0.54559892 1.3000687e-38
5.0519681 -0.32424414 0.54969704 1.290921e-38
2.5550873 -0.28821567 0.55164725 4.1509627e-39
4.249999 -0.20051649 0.50892597 2.1762856e-38
4.3261538 -0.20722137 0.52117467 2.1024932e-38
4.455122 -0.21342444 0.54311323 2.028701e-38
4.5533342 -0.21610105 0.5610835 2.0102617e-38
4.6591725 -0.22485931 0.57474238 1.8903717e-38
4.7569237 -0.2477448 0.55186862 1.512262e-38
4.8610773 -0.25461024 0.57088262 1.4661641e-38
4.9431791 -0.27246088 0.55804604 1.3001763e-38
5.0407734 -0.28959474 0.54517514 1.2817014e-38
4.1701822 -0.11698871 0.51822317 2.213163e-38
4.2460628 -0.14387892 0.5316819 2.2039796e-38
4.3491063 -0.14823249 0.55992472 2.1947959e-38
4.4450774 -0.16519168 0.57491368 2.1855765e-38
4.5384684 -0.18141942 0.58602619 2.1855406e-38
4.6176596 -0.19121595 0.59958446 2.1947244e-38
3.9868832 -0.0069266977 0.50329787 2.2039074e-38
4.0644312 -0.029800439 0.51280534 2.213127e-38
4.1473904 -0.042503133 0.54200059 2.2223105e-38
4.2468238 -0.051615953 0.56751978 2.2407137e-38
4.3328142 -0.070125744 0.58734864 2.2498973e-38
4.4024048 -0.093385749 0.59703922 2.2591528e-38
3.2576187 0.096301496 0.5075472 2.1855402e-38
3.3567529 0.091817051 0.52369142 2.1947598e-38
3.4492188 0.084105797 0.53658205 2.213127e-38
3.5486815 0.075263977 0.54980081 2.213127e-38
3.6488433 0.059436489 0.54760367 2.2223105e-38
3.7493401 0.045147128 0.54916573 2.2314941e-38
3.844034 0.032198656 0.55288613 2.2314941e-38
3.9451988 0.017870285 0.55450672 2.2406776e-38
4.0486383 0.006677296 0.57069016 2.2406776e-38
3.0617123 0.10950992 0.50574464 2.1855405e-38
3.161299 0.10680279 0.51763922 2.1855403e-38
3.2562163 0.10725127 0.54168618 2.1855403e-38
3.349612 0.1077372 0.5713051 2.19476e-38
3.443188 0.10328791 0.58368653 2.19476e-38
1.4942733 0.98327154 0.54232484 1.4014783e-38
1.5371749 0.96219766 0.55479217 1.1248918e-38
1.6237215 0.97121263 0.54737526 7.469997e-39
1.4667181 1.0497035 0.55094784 1.3646001e-38
1.432493 1.1475871 0.55023062 1.3185022e-38
1.4257935 1.2217137 0.55598003 1.3000629e-38
2.0846696 -1.8422726 0.66527879 4.8805796e-39
2.1405468 -1.8262898 0.64517498 4.8809384e-39
2.2184219 -1.8102005 0.62163591 5.0653296e-39
2.1654704 -1.7925739 0.68838298 4.6954681e-39
2.2464082 -1.7612606 0.65545386 4.8809355e-39
2.3457277 -1.7322654 0.645482 5.1568022e-39
2.4403694 -1.7279056 0.61659729 5.6174202e-39
2.5071948 -1.715566 0.60243022 6.4475396e-39
2.1368375 -1.668388 0.69979441 7.4602482e-39
2.3841455 -1.6915689 0.68997848 4.971692e-39
2.4510224 -1.6526181 0.65432906 5.2486363e-39
2.5129457 -1.6417331 0.60675228 5.6181377e-39
2.4827754 -1.5761613 0.67196715 5.3397515e-39
2.53773 -1.5397447 0.64166671 5.6174174e-39
2.6245825 -1.5098243 0.60877848 6.1705898e-39
2.5727873 -1.4890592 0.67268485 5.5248644e-39
2.6546741 -1.4505476 0.65046161 6.2620665e-39
2.7079611 -1.4068305 0.62800545 6.9088695e-39
2.4501491 -1.3863373 0.69989371 1.2995209e-38
2.6713829 -1.3706205 0.69612449 9.5818169e-39
2.7560878 -1.3774695 0.65350896 7.000705e-39
2.8440468 -1.3387346 0.65013444 6.6326441e-39
2.9216838 -1.3231109 0.64164394 5.3419067e-39
2.7836826 -1.2112976 0.68350625 8.3807541e-39
2.8517461 -1.2483101 0.6482287 7.277652e-39
2.9092426 -1.2948602 0.62299925 4.9731228e-39
2.6986468 -1.1245483 0.66965187 1.1974219e-38
2.7348032 -1.1457963 0.65505606 8.1985307e-39
2.8074343 -1.1954056 0.62719089 7.5549619e-39
2.5814266 -1.0155122 0.63800371 9.1251701e-39
2.6470478 -1.0549082 0.66203648 8.3876051e-39
2.703619 -1.0979805 0.608482 5.2515342e-39
2.4954205 -0.95556313 0.60482526 9.1251701e-39
2.5566833 -0.96870387 0.62419152 1.1062359e-38
2.6465843 -0.94819856 0.64997566 1.2722603e-38
2.7191639 -0.93713933 0.68852729 1.3644921e-38
2.5958998 -0.85124803 0.60421193 1.4290292e-38
2.6502798 -0.84487808 0.63303375 1.4198098e-38
2.7262909 -0.84966069 0.68287706 1.4567239e-38
2.6865997 -0.7532956 0.6225642 1.5673588e-38
2.7171607 -0.74910891 0.67140651 1.5673947e-38
2.6758738 -0.64623666 0.64524996 1.6503348e-38
2.7087603 -0.68358845 0.68519974 1.585798e-38
2.6338265 -0.55010206 0.649966 1.6779575e-38
5.4524326 -0.50894338 0.60835081 1.2447511e-38
5.5632186 -0.51633447 0.64508307 1.115713e-38
5.6392221 -0.51215684 0.67732561 8.3927016e-39
5.7220311 -0.50934452 0.69345289 1.6045654e-38
2.5777888 -0.4430109 0.64878279 1.7425662e-38
2.6054356 -0.49393839 0.65434009 1.705688e-38
5.0932255 -0.40195194 0.60622358 9.8660338e-39
5.2699642 -0.43867743 0.61207265 1.1801419e-38
5.3624101 -0.44800586 0.62662399 1.0418846e-38
5.4682798 -0.4519667 0.64462596 1.3369828e-38
5.5459499 -0.46619314 0.6561172 1.2724097e-38
5.6422696 -0.47193524 0.67638665 9.6827216e-39
5.7344112 -0.47947961 0.69700915 1.7520426e-38
2.563864 -0.34996927 0.65009487 1.3092476e-38
5.0743995 -0.36675638 0.604711 1.290849e-38
5.1179814 -0.33623648 0.60794431 1.6042778e-38
5.2858024 -0.30276546 0.63296068 1.9178151e-38
5.3240304 -0.34337875 0.63753843 1.8992678e-38
5.4368086 -0.37809911 0.65888673 1.6043503e-38
5.5546856 -0.33416966 0.67317224 1.5582161e-38
2.5528681 -0.27836543 0.65304327 4.427551e-39
4.7358012 -0.20976381 0.61265951 2.1763215e-38
4.8459363 -0.21029277 0.65540713 2.1578825e-38
4.9480209 -0.21612263 0.67000735 2.1762856e-38
5.0471129 -0.24545932 0.64435476 1.9088469e-38
5.1385946 -0.26275903 0.6431706 1.8442739e-38
5.2438445 -0.26003703 0.66445297 1.7705176e-38
5.3371534 -0.2980071 0.63910985 1.4937155e-38
5.4441695 -0.27647072 0.68142146 1.5861265e-38
5.5547962 -0.290151 0.68916154 1.4108831e-38
4.4643369 -0.11444342 0.63688815 2.2315301e-38
4.5453696 -0.13946773 0.65804058 2.2039434e-38
4.6439037 -0.17128666 0.65808284 2.1855405e-38
4.7353048 -0.18842001 0.66691703 2.1854689e-38
4.8222456 -0.19968779 0.66441607 2.1947246e-38
4.169539 -0.0069746105 0.61852735 2.2498612e-38
4.255928 -0.01872367 0.64068687 2.2498612e-38
4.3565888 -0.050914202 0.64502698 2.2498613e-38
4.4272285 -0.0787981 0.66549754 2.2314582e-38
3.5810974 0.097963423 0.61395878 2.2039795e-38
3.6580484 0.089942239 0.62827033 2.2223467e-38
3.751158 0.083348453 0.6503039 2.2223826e-38
3.8526628 0.067792282 0.64738441 2.2407498e-38
3.9512799 0.052228875 0.65216184 2.2591169e-38
4.0482621 0.030049399 0.65195704 2.2683005e-38
4.1431623 0.01316308 0.66153258 2.2683005e-38
4.2289214 0.0044144355 0.68420732 2.2867034e-38
3.3854911 0.13330022 0.66667533 2.1670302e-38
3.451539 0.12073309 0.65079904 2.1762855e-38
3.5453134 0.11296229 0.66041708 2.1855049e-38
3.6414971 0.10595553 0.67313343 2.1947244e-38
3.7171421 0.10347812 0.69448274 2.2039437e-38
1.4984071 0.99438739 0.6452179 1.383039e-38
1.5370299 0.96650755 0.64946276 1.041916e-38
1.6140386 0.96652985 0.61213475 7.653668e-39
1.4707086 1.0504273 0.65102834 1.346125e-38
1.4308274 1.1491004 0.65152442 1.2908076e-38
1.4200556 1.220186 0.64628816 1.2723323e-38
2.0519505 -1.8090668 0.72449577 1.1517558e-38
2.1042006 -1.8077327 0.70185304 5.3404732e-39
2.0625484 -1.7590989 0.7472828 1.0873995e-38
2.1381917 -1.7428808 0.74156839 5.6177761e-39
2.2415488 -1.7246184 0.70661765 5.2486363e-39
2.3153491 -1.706473 0.70339984 5.1557204e-39
2.094389 -1.6361973 0.75196528 1.7234741e-38
2.1326444 -1.6462578 0.74156606 1.3269257e-38
2.2492158 -1.6315998 0.74215019 1.2255478e-38
2.3470421 -1.6493546 0.73659194 5.5245057e-39
2.4224079 -1.6314226 0.71115488 5.431587e-39
2.0849044 -1.5911375 0.7769078 1.1152728e-38
2.1074147 -1.5972036 0.76785988 3.1320968e-39
2.3586125 -1.5557441 0.74887007 1.3546215e-38
2.4517903 -1.5507025 0.71125454 5.8922022e-39
2.5074368 -1.5095692 0.70218486 5.7085312e-39
2.3849454 -1.4601507 0.75895047 1.4099372e-38
2.4375975 -1.4285812 0.74036992 9.5847007e-39
2.5430622 -1.4551069 0.71757817 5.8025317e-39
2.6318297 -1.4322484 0.70956409 6.2613435e-39
2.4742208 -1.3843369 0.72874898 1.2903382e-38
2.5648367 -1.3518686 0.75245643 9.8612918e-39
2.6450148 -1.353857 0.71629488 7.3687644e-39
2.7531412 -1.3467251 0.71245193 6.7230349e-39
2.8470087 -1.3202791 0.71404904 6.0783913e-39
2.9013762 -1.3151641 0.70321703 3.7738649e-39
2.598927 -1.2982719 0.73594332 1.373277e-38
2.6478577 -1.2524736 0.75179577 1.4284492e-38
