# .PCD v0.7 - Point Cloud Data file format
VERSION 0.7
FIELDS x y z rgb
SIZE 4 4 4 4
TYPE F F F F
COUNT 1 1 1 1
WIDTH 1046
HEIGHT 1
VIEWPOINT 0 0 0 1 0 0 0
POINTS 1046
DATA ascii
7.0409641 -3.5595267 0.34312284 1.3093583e-38
7.1072359 -3.5907593 0.32302195 1.5861251e-38
5.7643042 -3.4116495 0.32438824 1.0972356e-38
5.8518558 -3.4449956 0.33285931 1.0695769e-38
5.9488192 -3.4528148 0.35509357 1.1341139e-38
6.0486712 -3.4582887 0.36788002 1.1618086e-38
6.1324816 -3.4533699 0.37482789 1.1986868e-38
6.2426391 -3.4690719 0.37829244 1.3185411e-38
6.3486037 -3.4540288 0.38602588 1.3554194e-38
6.4185472 -3.4511712 0.3920342 1.2908464e-38
6.7719641 -3.4184437 0.38496336 1.6873241e-38
6.8521652 -3.4498961 0.35661224 1.4014819e-38
6.9369888 -3.4777241 0.33027998 7.9299088e-39
5.4908037 -3.3048213 0.3050139 1.041918e-38
5.557991 -3.3200324 0.32651162 1.0695408e-38
5.6477122 -3.3487489 0.33479768 1.0603572e-38
5.7503409 -3.3552182 0.35876554 1.041918e-38
5.8154049 -3.3601158 0.37253579 1.0326983e-38
5.9591923 -3.3602028 0.37831032 1.0326985e-38
6.0161133 -3.3345327 0.38192385 9.7730927e-39
6.1374106 -3.3707767 0.38187429 1.1618084e-38
6.2397985 -3.3617618 0.38937056 9.9582042e-39
6.3238945 -3.3911436 0.39233965 1.1248943e-38
6.5957227 -3.3085399 0.39968869 1.2908113e-38
6.665905 -3.3317308 0.36305225 1.6135676e-38
6.7433109 -3.3728266 0.34721139 1.3092863e-38
6.8033705 -3.3930702 0.33375201 9.3124845e-39
5.2794547 -3.2118807 0.31232184 1.0049318e-38
5.3494153 -3.2312624 0.32415706 9.9571224e-39
5.4520078 -3.2628498 0.33415541 9.9574826e-39
5.5572886 -3.2492325 0.36085045 9.0355221e-39
5.660778 -3.2252932 0.37366667 8.4823441e-39
5.7470994 -3.2228358 0.38003388 8.2979542e-39
5.8517485 -3.2517931 0.38151902 8.5745439e-39
5.9519696 -3.2268708 0.3915852 8.2057614e-39
6.0469618 -3.2632589 0.39021218 8.2976011e-39
6.1379766 -3.2843323 0.39143184 7.0079413e-39
6.4877658 -3.2075784 0.37128219 1.6412264e-38
6.5459785 -3.2430315 0.35608107 1.5213721e-38
6.6180396 -3.2836537 0.33948261 1.2908832e-38
5.0693598 -3.1155026 0.31817111 8.9429705e-39
5.1554475 -3.1383364 0.33117658 8.7585764e-39
5.2488585 -3.1611366 0.33820069 8.8507707e-39
5.3605027 -3.147573 0.36187705 8.2053956e-39
5.4578629 -3.1612945 0.36774918 7.9288102e-39
5.5515471 -3.1298029 0.37806919 8.1135601e-39
5.6446924 -3.1408005 0.38386717 8.2057572e-39
5.7596869 -3.161736 0.38972598 8.2979542e-39
5.8360572 -3.1701748 0.39435259 8.3901498e-39
6.3773375 -3.1197269 0.36449435 1.6135317e-38
6.4414148 -3.1625741 0.35313854 1.5951286e-38
6.5077453 -3.1924286 0.31924263 1.0972365e-38
4.86834 -3.0126736 0.34685516 7.8366145e-39
4.9518957 -3.0411375 0.35947156 7.9291689e-39
5.0491524 -3.0582707 0.36911085 7.9288088e-39
5.1516595 -3.0591846 0.37707448 7.9288088e-39
5.2460251 -3.0527976 0.38223362 8.1131986e-39
5.3423982 -3.0497131 0.38587052 8.2053942e-39
5.4394431 -3.0692487 0.3841753 8.2975899e-39
5.5409203 -3.0831385 0.39092425 8.2979514e-39
5.6222229 -3.091923 0.39747319 8.3901484e-39
6.2633061 -3.0273547 0.35879025 1.4660546e-38
6.3309751 -3.0760434 0.3497543 1.604384e-38
4.6534715 -2.9197774 0.35224396 7.4681921e-39
4.7481432 -2.9603951 0.35045004 7.8366145e-39
4.821897 -2.9895751 0.3634145 7.8366131e-39
6.1597424 -2.939326 0.35392022 1.3738947e-38
6.21632 -2.9837062 0.35034794 1.6136393e-38
4.4535732 -2.8242133 0.35098812 6.9150198e-39
4.5521512 -2.8733406 0.35202011 7.0994096e-39
4.601521 -2.8990319 0.31203592 7.4681935e-39
5.9899359 -2.8093696 0.35088077 1.0419545e-38
6.0446763 -2.8509772 0.35418776 1.3554555e-38
6.1062827 -2.8956509 0.3436006 1.8164697e-38
4.1870489 -2.704951 0.35821658 6.9150198e-39
4.2499719 -2.7309263 0.34843355 6.9150198e-39
4.3460937 -2.7729287 0.34872639 6.9150198e-39
4.4026699 -2.7991586 0.33983722 7.007214e-39
5.8721242 -2.7238505 0.34810087 1.3554555e-38
5.9437079 -2.7753749 0.35291177 1.346236e-38
3.8624694 -2.6151643 0.35726821 7.0990579e-39
3.96279 -2.6552172 0.34801441 7.0072196e-39
4.0406022 -2.6665487 0.34836343 6.8228269e-39
4.1355262 -2.6870515 0.35102332 6.8228255e-39
5.7621093 -2.6361392 0.34599653 1.3001024e-38
5.8239946 -2.6839788 0.35003373 1.1894677e-38
3.666276 -2.5221937 0.34930563 7.2834506e-39
3.7496293 -2.5608687 0.34731638 7.1912549e-39
3.8210609 -2.5909011 0.34248871 7.1912521e-39
5.5855036 -2.5079851 0.34780347 1.1157112e-38
5.6472588 -2.5518358 0.35125601 1.0787969e-38
5.7080641 -2.5951805 0.35142758 1.0696134e-38
3.4727352 -2.416266 0.36381221 1.0049321e-38
3.5584424 -2.4626007 0.35296613 7.6522345e-39
3.621408 -2.4944355 0.32392159 7.3756448e-39
5.47054 -2.4213765 0.34512672 1.0050048e-38
5.532342 -2.4671628 0.3540321 9.3128404e-39
7.2485499 -2.4020293 0.31026396 6.1796239e-39
7.3086843 -2.4061656 0.31636524 6.8249919e-39
2.6347613 -2.3194778 0.36175975 5.0707512e-39
2.7574375 -2.3183832 0.39314035 5.4398883e-39
2.8690581 -2.3119295 0.31143504 6.5462372e-39
2.9172752 -2.3151793 0.30961952 6.7306271e-39
3.2804632 -2.3110721 0.35756227 7.3760077e-39
3.3510537 -2.3485515 0.35146943 7.8369845e-39
3.4235854 -2.3874693 0.34799063 9.0351689e-39
5.3612003 -2.3327041 0.34932023 9.6783803e-39
5.4245234 -2.3786118 0.36082852 7.2834562e-39
6.7939582 -2.3004217 0.30388612 1.1712079e-38
6.8693714 -2.3086028 0.32212934 1.1619525e-38
6.960834 -2.3239229 0.32999334 1.0789404e-38
7.0532327 -2.3326137 0.3342492 1.088196e-38
7.1603804 -2.3573344 0.32172778 9.7756122e-39
7.2476416 -2.3793492 0.31221697 7.3781671e-39
2.6283791 -2.254339 0.33918661 4.517939e-39
2.7445836 -2.248502 0.34949419 5.7164766e-39
2.8630152 -2.2503393 0.33273813 6.5458771e-39
2.9235322 -2.2645795 0.31738657 6.8228227e-39
3.0553486 -2.2160003 0.35412589 7.4678418e-39
3.1510253 -2.2522945 0.35364908 7.4678432e-39
3.226721 -2.2835245 0.34867609 7.3756476e-39
5.1808972 -2.2149119 0.33506894 8.3887177e-39
5.2503695 -2.2533011 0.35581866 8.8500574e-39
5.3069601 -2.2880132 0.37191722 7.0065077e-39
6.4826746 -2.2043741 0.31801969 1.1619525e-38
6.5413465 -2.2186351 0.32660055 1.1711719e-38
6.6471391 -2.2306199 0.34966201 9.5908608e-39
6.751183 -2.2377253 0.3680099 8.1150119e-39
6.8430228 -2.2396846 0.3619895 9.2217182e-39
6.9386654 -2.2568178 0.34410971 1.0512817e-38
7.0400066 -2.2770884 0.3165625 9.6830565e-39
2.6553605 -2.1511936 0.34827825 3.1342857e-39
2.7539809 -2.1363728 0.34945354 5.1629483e-39
2.8498123 -2.1442323 0.33656976 6.4540444e-39
2.9536691 -2.1714189 0.35357004 7.0990579e-39
3.0247931 -2.1938822 0.34063324 7.4678418e-39
4.9858036 -2.1053681 0.32371986 9.0373269e-39
5.0584888 -2.1360934 0.34461433 7.5603962e-39
5.135705 -2.1753783 0.36028379 6.6388014e-39
6.1305346 -2.111165 0.3140004 1.189611e-38
6.2414994 -2.1293304 0.33423361 9.8674491e-39
6.3560104 -2.1475222 0.35309729 8.2075663e-39
6.4474154 -2.1760836 0.35004374 8.9451327e-39
6.5466619 -2.1836231 0.37782291 5.9019566e-39
6.6577368 -2.1255379 0.35922593 8.299043e-39
6.7606602 -2.1679926 0.36916652 7.6540337e-39
6.8321733 -2.1930931 0.33115444 1.0236232e-38
2.6891017 -2.0652368 0.3840265 4.0558832e-39
2.733254 -2.0717523 0.37832683 5.1629497e-39
2.813874 -2.0911899 0.37476265 5.4395366e-39
4.8568373 -2.0246358 0.33918124 9.3135509e-39
4.9447174 -2.0649309 0.35774952 7.2848897e-39
5.0157504 -2.0938814 0.3835775 5.7172038e-39
5.753912 -2.0146399 0.31550455 1.0052201e-38
5.8474293 -2.0258982 0.32751772 8.115372e-39
5.9538803 -2.0467441 0.33572611 7.6543939e-39
6.0526247 -2.0614982 0.35064 6.9164687e-39
6.1511359 -2.0797899 0.3623971 5.6253712e-39
6.2371769 -2.0893779 0.38248405 5.0718358e-39
6.3516517 -2.0290117 0.36880192 7.0083056e-39
6.4641166 -2.0407226 0.35782823 7.3770867e-39
6.5318837 -2.0671899 0.35188055 8.2994046e-39
4.6828103 -1.9134643 0.32703617 1.1526962e-38
4.7473884 -1.9487693 0.34765059 1.2171614e-38
4.8233809 -1.9818671 0.37505639 9.3135509e-39
5.2973771 -1.9006748 0.33629599 4.8874446e-39
5.3651872 -1.9107985 0.33672523 5.3487829e-39
5.4597235 -1.9194949 0.35505205 5.0718358e-39
5.5483866 -1.9317129 0.35370746 5.3484241e-39
5.6511998 -1.9492168 0.35278538 5.6253712e-39
5.7416201 -1.9573455 0.36613858 4.795249e-39
5.8454304 -1.9736056 0.37533078 4.795249e-39
5.9494114 -1.9972939 0.38627237 4.795249e-39
6.0578604 -1.9026099 0.31465852 1.0419545e-38
6.1645441 -1.9338943 0.36233008 7.1923367e-39
6.2471085 -1.9609267 0.35039893 7.1926955e-39
6.3384099 -1.9907229 0.37490445 5.1640329e-39
4.5672655 -1.8223144 0.34345153 9.959642e-39
4.6472702 -1.8493149 0.34800848 8.7607386e-39
4.7586684 -1.8190589 0.35733002 5.6260914e-39
4.8341684 -1.8162016 0.33270583 5.0721974e-39
4.9532046 -1.8206178 0.32606885 4.9796416e-39
5.050127 -1.834066 0.34136397 4.7030547e-39
5.1493335 -1.8574473 0.34753409 4.7030533e-39
5.249433 -1.8803551 0.35569635 4.795249e-39
5.3430624 -1.8900428 0.37680575 4.7030533e-39
5.4261861 -1.8965561 0.38584417 4.7030533e-39
5.8419275 -1.8188523 0.3455151 6.4551318e-39
5.9451418 -1.8543782 0.37533647 5.3484227e-39
6.039289 -1.8855674 0.34239054 6.8239143e-39
6.101325 -1.8986566 0.36092693 4.9796402e-39
4.4899397 -1.7720904 0.33202267 7.1015788e-39
4.5457458 -1.7810055 0.35503665 7.6547526e-39
4.6284838 -1.7926855 0.35763478 5.8104813e-39
4.7776914 -1.7737342 0.38850069 4.7041351e-39
4.8398271 -1.7788464 0.36657116 4.6112192e-39
4.9305992 -1.787722 0.37795201 4.2424367e-39
5.4690323 -1.7018949 0.37875313 5.6253698e-39
5.5370517 -1.7230784 0.37549424 5.4409785e-39
5.656951 -1.7571179 0.35096368 5.809761e-39
5.7194762 -1.7715887 0.35486093 5.2562271e-39
5.2518854 -1.6252279 0.37278563 5.6253698e-39
5.3386416 -1.6536283 0.3697378 5.6253698e-39
5.4436946 -1.6808876 0.34940925 5.2565872e-39
5.5010595 -1.6959891 0.30160943 8.3912415e-39
4.763031 -1.5028105 0.39857405 4.3342722e-39
4.8672423 -1.5131836 0.38055292 4.3342722e-39
4.9621902 -1.5358143 0.37465349 5.0718358e-39
5.0668941 -1.572359 0.3786718 4.9796402e-39
5.1457081 -1.5879046 0.36523345 5.532814e-39
4.2749968 -1.4058685 0.39472425 6.8239129e-39
4.3526497 -1.423548 0.39185008 6.8239129e-39
4.4538431 -1.4383683 0.39302599 6.4547703e-39
4.5503654 -1.4348769 0.38265198 5.2565872e-39
4.6489987 -1.4416453 0.37167129 4.7034149e-39
4.7503514 -1.4714097 0.37305743 4.6108591e-39
4.8337731 -1.481534 0.35040396 5.809761e-39
4.0800071 -1.3073171 0.39085251 6.6391615e-39
4.1513448 -1.3353531 0.38720641 6.8235528e-39
4.2493186 -1.3535471 0.38037786 6.6391615e-39
4.3445711 -1.3438826 0.35989204 5.5328154e-39
4.4427404 -1.3668692 0.35968134 4.9800017e-39
4.5288243 -1.3875155 0.35169145 4.887446e-39
3.8950124 -1.2092724 0.39898705 5.4406184e-39
3.961477 -1.2221887 0.38240236 5.9941523e-39
4.0535045 -1.2625747 0.37966239 6.6391615e-39
4.1464958 -1.2698412 0.35323119 5.9941523e-39
4.2397966 -1.2908087 0.34048006 5.4406198e-39
3.6811204 -1.1070137 0.39034453 6.2707392e-39
3.7541044 -1.1241827 0.35484454 6.086708e-39
3.8530109 -1.1643242 0.35876057 5.7179255e-39
3.9359066 -1.1902493 0.35007748 5.809761e-39
3.2837808 -1.0084351 0.39715847 8.6678213e-39
3.3618865 -1.0244868 0.39639315 8.0224505e-39
3.4641325 -1.0210122 0.37991816 7.3774455e-39
3.5467384 -1.0370136 0.34848547 7.1008586e-39
3.6414564 -1.0736847 0.33911243 7.2848911e-39
3.7083366 -1.0940677 0.31244659 7.10086e-39
3.1843433 -0.95647502 0.39662373 8.7600198e-39
3.2579808 -0.95551229 0.3937428 8.0228135e-39
3.3566759 -0.93786478 0.38332847 7.6536722e-39
3.4534056 -0.95844996 0.34803548 6.5476848e-39
3.5392489 -0.93979752 0.33981138 6.5462442e-39
3.6533749 -0.9274134 0.34584758 7.0061378e-39
3.7353282 -0.94045508 0.35503429 7.8369789e-39
3.1614153 -0.82781667 0.39316702 9.0373255e-39
3.2582495 -0.8544752 0.39208865 8.3919561e-39
3.351336 -0.85228133 0.37378982 7.9302591e-39
3.4460888 -0.85529387 0.36318633 7.8384208e-39
3.5389304 -0.87618846 0.34144047 9.1269974e-39
3.6218309 -0.89365482 0.33084306 1.0047153e-38
2.8868668 -0.70677859 0.39567295 8.8540105e-39
2.962791 -0.71680409 0.38379294 9.3146313e-39
3.0453234 -0.74395579 0.37353897 8.7607372e-39
3.1468041 -0.75701022 0.36325353 8.760017e-39
3.2494202 -0.77889407 0.34908 8.2975983e-39
3.3183539 -0.78888363 0.34150949 8.0224519e-39
2.6847074 -0.60692972 0.35642302 1.0329142e-38
2.7576826 -0.63734323 0.3681488 9.9603594e-39
2.8452475 -0.66953105 0.36851782 9.8678051e-39
2.9420052 -0.68890226 0.34988439 9.1302386e-39
4.4389567 -0.60903639 0.39194816 1.3926945e-38
4.5292473 -0.60355788 0.35939422 1.3556708e-38
2.3400712 -0.51092803 0.35057887 7.7476671e-39
2.4630311 -0.54398865 0.35252738 1.0236948e-38
2.547647 -0.56705528 0.3563394 1.0974511e-38
2.63007 -0.58965766 0.34962183 1.0513533e-38
4.460947 -0.56053376 0.38451099 1.5124759e-38
4.5483918 -0.53984314 0.34451821 1.2910621e-38
4.6064429 -0.58663923 0.31996045 4.7966853e-39
2.2862287 -0.48573685 0.3524777 8.4841545e-39
2.3333054 -0.48660302 0.35108215 1.1434055e-38
2.4633236 -0.48586491 0.35403177 1.2078707e-38
2.5552022 -0.46235195 0.35121936 1.1801761e-38
2.6147215 -0.44412971 0.33373848 1.161773e-38
4.3907194 -0.40351984 0.31041646 1.1804266e-38
4.4647813 -0.42576626 0.35943758 8.9454886e-39
4.5409274 -0.47195953 0.34955758 5.4420561e-39
4.2826481 -0.3231107 0.33424976 1.4385381e-38
4.3330541 -0.35494477 0.3574414 1.4016243e-38
4.4163928 -0.39154524 0.37117904 8.115365e-39
4.263165 -0.24661998 0.33394828 1.4940353e-38
4.3412948 -0.25850603 0.37867001 1.3925483e-38
4.4148669 -0.2656146 0.39491606 1.4017678e-38
3.9720168 -0.10432768 0.34959468 1.3648536e-38
4.0555563 -0.12368541 0.34464198 1.4755244e-38
4.147635 -0.15554968 0.35113752 1.5216582e-38
4.2252054 -0.18683685 0.35326111 1.5770116e-38
3.8770437 -0.040653296 0.3427254 9.6844788e-39
3.9168651 -0.075877398 0.37224025 9.7766786e-39
3.5784204 0.089096524 0.34529743 1.4662688e-38
3.6367652 0.053791896 0.35101753 1.420171e-38
3.7481883 0.022546845 0.35263461 1.014546e-38
3.8348045 0.0072610406 0.35046452 9.6844816e-39
3.4878213 0.16897935 0.35029766 1.1804621e-38
3.5141847 0.11985032 0.34980068 1.079047e-38
3.3446131 0.26771992 0.3510406 1.4293185e-38
3.4518938 0.21981518 0.34914804 1.1896456e-38
2.9974477 0.39754412 0.33809951 8.3004597e-39
3.0480585 0.37135738 0.34171703 1.2449982e-38
3.1341643 0.32685304 0.35642835 1.0144734e-38
3.2547765 0.30504367 0.35037574 1.2818413e-38
3.3092771 0.30218741 0.33180198 1.4201346e-38
2.8804865 0.48221692 0.3517766 7.1004998e-39
2.9591656 0.44138479 0.34449983 1.1527681e-38
3.0243647 0.41522944 0.36798581 1.0790466e-38
2.6802759 0.57961124 0.34716928 1.2077606e-38
2.7523494 0.55069417 0.34877631 1.4383225e-38
2.8346453 0.52092332 0.35186613 1.2816625e-38
2.4748952 0.68938452 0.34977934 1.7604621e-38
2.569658 0.67305052 0.34948793 1.179848e-38
2.6296275 0.62844992 0.35005218 1.1615542e-38
2.2697964 0.793962 0.33973536 1.1340734e-38
2.353389 0.77356577 0.34747255 8.3894001e-39
2.430625 0.73716432 0.34911489 9.0300808e-39
2.1830938 0.89474428 0.35455811 1.5205739e-38
2.2421312 0.85726225 0.34253532 8.2003314e-39
2.3343289 0.82811528 0.34601822 3.6892349e-39
2.4042113 0.80696851 0.30366188 5.0656841e-39
2.0761755 0.96294957 0.37092954 1.2443121e-38
2.1487272 0.9412902 0.34313518 5.7114109e-39
2.2669945 0.9003588 0.30090109 3.9611429e-39
1.7599728 1.0853668 0.39147866 1.5023148e-38
1.8774126 1.0840969 0.36293113 1.2717902e-38
1.9533973 1.0657988 0.37013713 8.8467756e-39
2.0453508 1.0596526 0.35103917 5.804331e-39
2.1355643 1.0435095 0.32684445 3.2228575e-39
1.6465594 1.1602652 0.39602798 5.5263078e-39
1.7486104 1.1545928 0.39242339 5.0656897e-39
1.8749331 1.1497844 0.36602965 3.8671522e-39
1.9340811 1.1444865 0.32162809 3.6838413e-39
2.0410144 1.1025572 0.30927277 2.9462777e-39
1.5747931 1.268046 0.35623911 1.0688882e-38
1.6546125 1.254113 0.35595694 2.8551638e-39
1.7488658 1.2447312 0.35185584 2.854445e-39
1.8495665 1.2447265 0.3453491 2.4856653e-39
1.9288759 1.2473392 0.32191914 2.3938312e-39
1.5791959 1.3406235 0.3592712 4.6965429e-39
1.605395 1.3752823 0.31862777 4.2366451e-39
1.5948889 1.4037603 0.34628364 3.6831182e-39
1.608337 1.4099236 0.31876177 3.7760299e-39
7.0545568 -3.7218091 0.40713853 1.5121522e-38
7.1164827 -3.7360828 0.40455014 1.5214437e-38
6.7934661 -3.6233468 0.40187088 1.364639e-38
6.8576245 -3.6328154 0.410613 1.3922976e-38
6.9526248 -3.6438293 0.41210675 1.4476152e-38
7.0296354 -3.6600635 0.40772027 1.5305914e-38
6.6591845 -3.5565114 0.40353435 1.4199563e-38
6.7565813 -3.589036 0.4094364 1.4383955e-38
6.8464284 -3.542942 0.41322538 1.410701e-38
6.9475546 -3.5685458 0.40651494 1.5490306e-38
6.4540443 -3.4330027 0.40041426 1.0511378e-38
6.5254612 -3.4568517 0.40484497 1.0326987e-38
6.6612158 -3.4566092 0.41326728 1.0326271e-38
6.771256 -3.4601281 0.40869185 1.3738229e-38
6.8409691 -3.4809065 0.40468094 1.5305915e-38
6.2746201 -3.3058448 0.41192517 5.163314e-39
6.3517122 -3.3213992 0.41521719 4.7023359e-39
6.4609694 -3.345221 0.41576412 4.3331946e-39
6.5348911 -3.3429518 0.41380274 5.346992e-39
6.6382017 -3.3599668 0.40636557 1.2815917e-38
6.0561838 -3.2116766 0.42907619 6.0849046e-39
6.1515193 -3.2280035 0.43592507 5.6239292e-39
6.2519965 -3.2397704 0.45104051 5.1625923e-39
6.3611393 -3.229636 0.46294606 5.6235733e-39
6.4408488 -3.2478662 0.4209291 5.2547936e-39
6.534277 -3.2777393 0.40539193 1.465983e-38
5.6819272 -3.1063163 0.40783891 8.5745383e-39
5.7515235 -3.1145873 0.4216319 8.8511266e-39
5.8522468 -3.1337879 0.43976963 8.2979542e-39
5.9488235 -3.1612718 0.45283309 6.9153813e-39
6.0458212 -3.1722043 0.4724229 6.2692958e-39
6.1359549 -3.1867688 0.47806558 6.1771016e-39
6.3573976 -3.1495936 0.45384368 5.8079659e-39
6.4060798 -3.1856861 0.40668029 3.5030794e-39
4.8816504 -3.0039101 0.41085395 8.2053942e-39
4.9549685 -3.0155075 0.42086366 8.2053942e-39
5.0469718 -3.0223432 0.41749862 8.2053942e-39
5.1518135 -3.0208535 0.4123998 8.2975899e-39
5.2423816 -3.009635 0.40400735 8.2975899e-39
5.3660636 -3.0090878 0.40775967 8.4827e-39
5.4539385 -3.0248218 0.42766443 8.6670927e-39
5.5518675 -3.0415344 0.44128707 8.9433208e-39
5.6492147 -3.0595276 0.45423922 9.0355178e-39
5.7375546 -3.0779934 0.46227002 8.9433236e-39
5.8166819 -3.0960741 0.48045817 8.2061187e-39
6.2654848 -3.0365674 0.44989309 6.5451723e-39
6.3122349 -3.0872583 0.45441318 6.176031e-39
4.6578655 -2.9159379 0.44896621 7.9288102e-39
4.7512512 -2.9504991 0.45028764 8.1132014e-39
4.8527341 -2.9748194 0.46216175 8.3894268e-39
4.9499249 -2.9637108 0.47262475 8.4819811e-39
5.0502868 -2.9627793 0.46487588 8.5741768e-39
5.1515703 -2.9565854 0.45597917 8.6663738e-39
5.2442231 -2.9565499 0.44112119 8.8507637e-39
5.3476052 -2.9728634 0.45506313 8.9433208e-39
5.4474387 -2.9836998 0.47811177 9.219549e-39
5.5314755 -2.9915535 0.49045104 9.3121061e-39
6.1651936 -2.9357276 0.44473851 7.0065091e-39
6.2169771 -2.9824626 0.45280078 7.006149e-39
4.444386 -2.8225625 0.45052549 6.9150198e-39
4.5541492 -2.8738551 0.4549748 7.1912465e-39
4.619606 -2.8937399 0.48322383 7.9291703e-39
4.9845319 -2.8922315 0.49621043 8.9429593e-39
5.0737925 -2.8817468 0.49629396 9.0351577e-39
5.1391096 -2.8908165 0.48934957 9.1273533e-39
6.0514936 -2.840148 0.44766581 7.1912605e-39
6.1100731 -2.8886342 0.45312762 7.3749329e-39
4.0592794 -2.7024434 0.44086078 7.007221e-39
4.1591568 -2.7083454 0.45554394 6.8228269e-39
4.2448626 -2.7348163 0.4531588 6.9150212e-39
4.3501701 -2.7798858 0.45255679 6.9150212e-39
5.8945861 -2.7110734 0.44651207 6.823557e-39
5.9474597 -2.7563043 0.45132226 6.9153939e-39
3.0682275 -2.6205523 0.48716915 5.5317266e-39
3.1128137 -2.6294134 0.49686298 5.8083121e-39
3.7947042 -2.6005766 0.46350744 6.1774631e-39
3.8495092 -2.621212 0.45155084 6.6380811e-39
3.9490678 -2.6648722 0.44933397 6.9146666e-39
4.0527806 -2.6915061 0.45194173 6.9150254e-39
4.1216779 -2.6951058 0.44466275 6.8228283e-39
5.7608986 -2.6200981 0.45631719 6.8239171e-39
5.8474236 -2.6762521 0.44751516 6.823557e-39
2.8901851 -2.5046709 0.47951791 4.5172173e-39
2.9677932 -2.5273104 0.46213651 5.254781e-39
3.0453167 -2.5472791 0.47779655 5.6239194e-39
3.1226943 -2.5580282 0.49406105 6.0848976e-39
3.6570036 -2.5241776 0.44798252 6.8224724e-39
3.7531035 -2.5761514 0.44867015 6.6380811e-39
3.8011556 -2.5976887 0.47162953 5.9005147e-39
5.5933299 -2.5060036 0.43232754 6.5469701e-39
5.6524391 -2.5459213 0.4513073 6.6391658e-39
5.717485 -2.5910928 0.45249215 6.9157526e-39
2.7759631 -2.4106832 0.45954907 3.3183154e-39
2.8619599 -2.433938 0.43591535 5.0711086e-39
2.9449399 -2.4551368 0.44824603 5.4391708e-39
3.02336 -2.4717171 0.47051564 5.7161164e-39
3.4680052 -2.4129348 0.4346371 1.0049321e-38
3.5522373 -2.4615111 0.44389069 7.8366243e-39
3.6102374 -2.4984665 0.46877474 6.8224738e-39
5.4762383 -2.415854 0.44523111 6.178189e-39
5.5392771 -2.4632857 0.45227647 6.4547745e-39
2.595557 -2.3055098 0.44186893 5.9008692e-39
2.6457484 -2.3250079 0.4209992 3.8725682e-39
2.7396944 -2.3626893 0.4252125 3.5030668e-39
2.8481653 -2.3605003 0.41811857 5.5320839e-39
2.9232352 -2.3874516 0.44646856 5.3469752e-39
3.2900851 -2.3077505 0.44890261 7.5600374e-39
3.3504343 -2.3449764 0.4422906 8.2976025e-39
3.4259982 -2.3887126 0.45412192 9.9571238e-39
5.3686752 -2.3259203 0.44463554 6.085992e-39
5.4274068 -2.3731234 0.44974393 6.1781876e-39
2.569881 -2.2728 0.47071129 3.1342829e-39
2.6116953 -2.292099 0.44774663 2.6736649e-39
2.7630849 -2.2310421 0.43026406 4.425379e-39
2.8169067 -2.2623236 0.45438433 4.5175747e-39
3.0815899 -2.2058539 0.43492678 7.6522345e-39
3.1489489 -2.2332256 0.44794542 7.4678418e-39
3.2311094 -2.2738588 0.43917879 7.4678418e-39
5.2598615 -2.2352633 0.44404164 6.2703818e-39
5.3219852 -2.2814541 0.45959628 6.6395245e-39
2.6932237 -2.1247203 0.4129245 3.6878182e-39
2.7284412 -2.1388814 0.45426738 4.0565993e-39
2.867718 -2.1140571 0.46335131 6.4536913e-39
2.9502294 -2.145169 0.45103773 7.5600374e-39
3.0374727 -2.1831434 0.44658789 7.7444301e-39
5.0798335 -2.1124334 0.43975037 6.6391643e-39
5.1542978 -2.1563706 0.44850734 6.8235556e-39
5.216568 -2.1930234 0.46216124 7.008307e-39
6.3796463 -2.1141183 0.40500221 4.9796402e-39
6.4717536 -2.1352966 0.40773556 5.2562271e-39
6.5493445 -2.1357234 0.4105002 5.4406184e-39
6.6527777 -2.1492591 0.40608114 5.6250096e-39
2.6879609 -2.0289063 0.41120872 5.3473409e-39
2.7386117 -2.074367 0.44990787 4.4253846e-39
2.8329391 -2.0907049 0.46773392 6.7302782e-39
4.8961668 -2.0053587 0.4224318 5.809761e-39
4.947309 -2.0312061 0.45448098 7.653675e-39
5.0328584 -2.0816789 0.45444956 7.5614808e-39
6.0571747 -2.0028741 0.41074598 4.6108577e-39
6.1215425 -2.0256531 0.40921345 4.7030533e-39
6.2541418 -2.0408773 0.41327834 4.9796402e-39
6.3698044 -2.0636513 0.41225788 5.2562271e-39
6.419908 -2.0533459 0.41495886 5.532814e-39
6.529789 -2.0838013 0.41217697 5.6250096e-39
6.6025805 -2.0927422 0.40010425 5.7172052e-39
4.7672815 -1.9204192 0.44871679 8.2075663e-39
4.8466816 -1.9679471 0.45073721 7.6536736e-39
4.9005098 -1.9986532 0.46663663 9.0366081e-39
5.4728475 -1.9004689 0.40270376 4.2420752e-39
5.5584679 -1.9101195 0.41000223 4.3342708e-39
5.6544847 -1.9186602 0.41769671 4.3342708e-39
5.7435398 -1.9276044 0.42316216 4.2420766e-39
5.8513207 -1.9363368 0.42699248 4.1498795e-39
5.9428296 -1.9408858 0.42080024 4.5186621e-39
6.0271001 -1.9363558 0.41351306 5.1640315e-39
6.1331186 -1.9780215 0.41462263 5.2562271e-39
6.24228 -1.9785534 0.40979564 5.6250096e-39
4.5825987 -1.8109075 0.44158936 8.7614603e-39
4.6517119 -1.8510395 0.44773102 8.0235351e-39
4.7210608 -1.8763125 0.45538932 7.5621968e-39
5.0644345 -1.8097658 0.40675735 4.2424381e-39
5.1565447 -1.8209319 0.41547102 4.2420766e-39
5.2481503 -1.8366375 0.41738212 4.1498823e-39
5.3497114 -1.8499688 0.41923675 4.1498823e-39
5.4456692 -1.8596039 0.42338878 4.0576867e-39
5.5451851 -1.8495406 0.43488616 3.8736556e-39
5.6454301 -1.851714 0.43916252 3.7810998e-39
5.7559514 -1.8487214 0.43124351 4.2420752e-39
5.8534222 -1.8688099 0.42985305 4.3346309e-39
5.9147573 -1.8861098 0.42384073 4.6108577e-39
4.4641309 -1.7285591 0.43399885 8.9462103e-39
4.5399914 -1.7668477 0.44966787 7.654754e-39
4.6653214 -1.7389834 0.42402142 5.7186458e-39
4.7413988 -1.7531937 0.41195422 5.4413386e-39
4.8496733 -1.741177 0.41047415 4.6108577e-39
4.962718 -1.7498792 0.42141229 4.8874446e-39
5.0526776 -1.7654934 0.42696646 4.6112178e-39
5.1439948 -1.7513437 0.43348813 4.7030533e-39
5.2541809 -1.7533454 0.43382853 4.1498795e-39
5.3303986 -1.7631954 0.43680948 3.9658484e-39
5.4433818 -1.7566366 0.43347293 3.8732941e-39
5.5523829 -1.7692252 0.43258527 3.8732941e-39
5.6411781 -1.7778571 0.41917232 4.6108577e-39
4.2842307 -1.6131022 0.46578613 7.377807e-39
4.3538523 -1.6471853 0.44689548 8.2079264e-39
4.4403939 -1.6576133 0.44055215 7.0093832e-39
4.5488148 -1.6519289 0.42945361 6.3636537e-39
4.6485128 -1.6647986 0.42274675 6.7317173e-39
4.7665682 -1.6594032 0.4194997 6.3629348e-39
4.821681 -1.6505464 0.42294279 6.1785435e-39
4.9633141 -1.6568015 0.42727917 5.2562271e-39
5.0614133 -1.649755 0.4251653 4.4264664e-39
5.1554627 -1.650708 0.42022547 3.8732941e-39
5.2404699 -1.6670561 0.42036644 3.9654897e-39
5.3319135 -1.6899753 0.42308345 3.7807397e-39
5.4089565 -1.6949015 0.40970391 4.6108577e-39
4.1620831 -1.5305225 0.46780944 7.9313395e-39
4.242238 -1.5535126 0.45253178 7.1934157e-39
4.3509679 -1.5531732 0.43528041 6.1792624e-39
4.4456053 -1.5560904 0.41926539 6.9164659e-39
4.5465269 -1.5622874 0.41322383 7.100497e-39
4.6431937 -1.5533918 0.41158453 6.6395203e-39
4.742671 -1.5570998 0.41225955 5.7175654e-39
4.8585234 -1.5619122 0.41154829 4.7030533e-39
4.9284539 -1.586911 0.41595417 4.5186635e-39
5.0197191 -1.5874232 0.40919402 3.7810984e-39
3.9832995 -1.4114724 0.47410545 8.023175e-39
4.0602651 -1.4443678 0.46684027 7.3778056e-39
4.1493387 -1.4572405 0.44509819 6.1789037e-39
4.2437177 -1.4576658 0.41908568 6.6391615e-39
4.3453608 -1.4697407 0.40944079 7.0083014e-39
4.4249496 -1.4823103 0.40538326 6.9164659e-39
4.5291753 -1.4943364 0.40185919 6.7313572e-39
4.6567416 -1.4894289 0.4031159 5.2565872e-39
4.715611 -1.4946518 0.40140894 4.8878047e-39
3.7905025 -1.3084568 0.47733641 7.6540323e-39
3.8515625 -1.3310927 0.4625805 6.7317173e-39
3.9473217 -1.3567629 0.44932213 6.1785435e-39
4.0494313 -1.3524071 0.42112175 5.1640315e-39
4.1384568 -1.3654495 0.41102439 6.178182e-39
4.20856 -1.3885815 0.40074775 6.8235528e-39
3.6544549 -1.2243948 0.46836033 6.8239129e-39
3.7509863 -1.2636958 0.4540959 6.1785435e-39
3.8482809 -1.250239 0.42447564 5.2562271e-39
3.9343362 -1.2728568 0.41927618 5.2562271e-39
4.02777 -1.2890874 0.40842703 5.532814e-39
3.4560416 -1.1232804 0.45594162 7.5611178e-39
3.5488842 -1.162447 0.44893202 7.2848897e-39
3.6440465 -1.1521541 0.41973329 6.2707364e-39
3.7510405 -1.1716629 0.41184586 5.7172038e-39
3.8323441 -1.1880412 0.40411341 5.5331741e-39
3.2655349 -1.0202264 0.45107889 8.4827154e-39
3.3469186 -1.0649356 0.44955853 8.2061271e-39
3.4282918 -1.0888777 0.41641995 8.4834301e-39
3.5445037 -1.0845816 0.40397477 6.547682e-39
3.0894752 -0.90513802 0.48360351 6.9161128e-39
3.1601653 -0.94265407 0.45106226 8.4834371e-39
3.2331133 -0.95142531 0.42979863 7.4692838e-39
3.3544371 -0.96348596 0.40738001 6.3629362e-39
3.0694485 -0.84915614 0.45370173 8.3915974e-39
3.1413379 -0.8483606 0.44796652 9.406108e-39
3.2324667 -0.84065765 0.45514059 1.1527325e-38
2.878659 -0.70703244 0.45093596 1.1528045e-38
2.954601 -0.73314476 0.4389056 1.0697924e-38
3.0418792 -0.77346677 0.43725255 1.0328782e-38
3.1431906 -0.785707 0.44520634 1.1435489e-38
3.2284167 -0.79272473 0.40289405 8.6692619e-39
2.5778456 -0.6099475 0.49173817 1.1619162e-38
2.6528232 -0.6193791 0.45496067 1.2081218e-38
2.7531266 -0.65223497 0.44671646 1.2357805e-38
2.8353686 -0.68372488 0.44703373 1.245e-38
4.3704786 -0.60577637 0.44764873 1.6784289e-38
4.4321957 -0.61194515 0.42033464 1.1256181e-38
2.3569207 -0.5155552 0.45277002 8.0228163e-39
2.4533737 -0.54872978 0.45887843 1.0512817e-38
2.5462804 -0.58250552 0.46049365 1.1158903e-38
2.6113181 -0.59410757 0.42067507 1.1712794e-38
4.0721459 -0.58220863 0.48705378 1.3648917e-38
4.1420836 -0.58116925 0.48868328 1.2358906e-38
4.2710156 -0.56961238 0.48127514 1.5679379e-38
4.352407 -0.5427106 0.46110693 1.1441294e-38
4.4276972 -0.54591036 0.42013621 1.3467419e-38
2.2808225 -0.47488847 0.45992705 1.2724076e-38
2.3450274 -0.44548687 0.45868513 1.3185414e-38
2.4425073 -0.44347817 0.43292144 1.2908826e-38
2.5358789 -0.44407877 0.41769871 1.2540045e-38
4.3841267 -0.44860128 0.4605526 1.3278687e-38
4.4357014 -0.45485586 0.41272211 1.1528047e-38
2.3663378 -0.39861682 0.49271187 1.4383957e-38
2.4290686 -0.39689857 0.49367064 1.3462e-38
4.2924109 -0.30314738 0.49077985 1.6136019e-38
4.3516893 -0.34616303 0.45080084 1.4660892e-38
4.4105582 -0.39208993 0.41414157 6.2718112e-39
4.1586142 -0.22612283 0.48789272 1.6135659e-38
4.2520909 -0.24488512 0.47243261 1.3647097e-38
4.3628688 -0.25673324 0.43948603 1.0789753e-38
4.4204278 -0.26394039 0.40849388 1.2450348e-38
3.9733393 -0.10178449 0.4474307 9.5000931e-39
4.0554085 -0.12152269 0.45050976 1.4754884e-38
4.1505523 -0.15870127 0.45815483 1.549209e-38
4.2343578 -0.18949369 0.43614352 1.3740373e-38
3.7779739 -0.01026386 0.47323716 1.3833289e-38
3.8599138 -0.033337507 0.45605266 1.337267e-38
3.9335139 -0.068652712 0.4400562 1.2450713e-38
3.5775924 0.09450648 0.44995454 1.4201351e-38
3.6511056 0.059488595 0.45041636 1.5031471e-38
3.7369869 0.016734278 0.45548543 1.2819137e-38
3.842334 0.0064156489 0.42052385 9.3164207e-39
3.4804702 0.16542572 0.4518925 8.9465564e-39
3.5165465 0.11667276 0.44546381 8.7621666e-39
3.2768302 0.28296888 0.4733389 1.4477575e-38
3.3268147 0.25530791 0.44257179 1.4661968e-38
3.4410927 0.214724 0.44697762 7.7476531e-39
3.0897536 0.39357263 0.40808171 1.0420959e-38
3.1567051 0.35402858 0.44571394 9.0383877e-39
3.2197633 0.3138606 0.46787465 7.8394886e-39
2.8792989 0.47819299 0.45092404 7.1008586e-39
2.9577355 0.44666141 0.44846183 1.1988305e-38
3.0504043 0.42364725 0.43825132 1.0236938e-38
3.1380138 0.41580874 0.47052464 7.8402061e-39
2.6825788 0.58385581 0.44847634 1.1893575e-38
2.734359 0.55570924 0.45086044 1.2170528e-38
2.8287046 0.52329874 0.4495523 1.4292113e-38
2.4859536 0.68284231 0.45028058 1.7512429e-38
2.5670965 0.66758573 0.44846171 1.1891038e-38
2.6349568 0.62838179 0.44979802 1.152371e-38
2.367959 0.79099458 0.43392983 5.9015727e-39
2.4539943 0.7487312 0.45155329 7.9244605e-39
2.1906388 0.89668429 0.41874936 1.1517561e-38
2.2359986 0.88988942 0.44883645 1.151649e-38
2.3497777 0.85439056 0.44657698 2.8576862e-39
2.4098141 0.83412206 0.49185899 2.4881904e-39
2.0872426 0.9929738 0.41296339 1.7428566e-38
2.1515059 0.95302147 0.44954675 6.6337399e-39
2.2051694 0.91123265 0.48526976 9.1212016e-39
2.3383055 0.90445739 0.47585046 3.5008906e-39
1.7660736 1.0897248 0.40500012 1.3455097e-38
1.8740052 1.0806445 0.43844011 1.2072168e-38
1.9527763 1.0703413 0.45190698 9.4939639e-39
2.0488174 1.0377001 0.45395374 1.5581413e-38
2.1126146 1.005672 0.47110263 1.0696847e-38
1.5931307 1.184608 0.41080314 1.2718988e-38
1.6480411 1.16448 0.41954768 1.2351291e-38
1.7410547 1.1691443 0.44361696 7.65474e-39
1.8753189 1.138353 0.46214199 7.3709266e-39
1.9035323 1.1804321 0.49169037 5.988002e-39
1.4756547 1.2506989 0.43212387 1.7052558e-38
1.5633837 1.2504678 0.44022647 1.0690328e-38
1.6508989 1.2328187 0.46443364 2.8598554e-39
1.7305175 1.212059 0.48465014 2.3218395e-39
1.8664961 1.23044 0.47668821 3.8700374e-39
1.9040798 1.2177218 0.48547074 4.697989e-39
1.4947683 1.305554 0.43388593 9.3066831e-39
1.5444398 1.3207014 0.43289307 5.7110564e-39
1.6003698 1.3444021 0.49870953 4.8834677e-39
6.256598 -3.2105978 0.5155499 6.6373623e-39
6.359674 -3.2162783 0.53123134 1.0045006e-38
5.874537 -3.1077783 0.51703668 7.2838065e-39
5.9537172 -3.1271687 0.52313817 6.3625705e-39
6.0446277 -3.1422317 0.51968819 6.5469631e-39
6.1523638 -3.1552448 0.53961295 8.75678e-39
6.2660561 -3.1571915 0.5684303 1.7699399e-38
6.3589206 -3.1568034 0.54609704 1.5667506e-38
5.6633158 -3.0147061 0.51359975 9.2199119e-39
5.7612743 -3.0312085 0.53419799 7.8366215e-39
5.8534064 -3.0511577 0.5411877 7.007221e-39
5.9530511 -3.0629523 0.54744267 6.914668e-39
6.0322471 -3.078099 0.56279171 7.2812926e-39
6.1697922 -3.0223997 0.5785709 2.3417689e-38
6.2574587 -3.0451698 0.55304849 2.0003936e-38
6.3332834 -3.0632207 0.53133249 1.3914716e-38
4.6919365 -2.9052289 0.51446342 8.4819839e-39
4.7588673 -2.9223938 0.51834726 8.4819825e-39
4.8496008 -2.9284315 0.51258671 8.5741782e-39
4.9273219 -2.9153149 0.50908476 8.6663752e-39
5.2700682 -2.912797 0.51958513 9.4043004e-39
5.3541427 -2.9294755 0.52115458 9.496496e-39
5.445209 -2.9437032 0.51342177 9.4964974e-39
5.5521998 -2.9413345 0.53290951 9.3124677e-39
5.6500211 -2.942497 0.56637722 8.8514923e-39
5.744184 -2.960083 0.57294935 9.2202776e-39
5.8329296 -2.9889936 0.56946069 9.4961471e-39
6.0595598 -2.9317639 0.57939893 2.341769e-38
6.1584439 -2.9468939 0.55882311 1.9176332e-38
6.2426529 -2.968034 0.54605156 1.5856931e-38
3.2827973 -2.8113089 0.58513254 6.730267e-39
3.3101535 -2.8155067 0.59414279 6.7302642e-39
3.4430099 -2.8024542 0.59607399 7.0064895e-39
4.4606552 -2.8206434 0.53814924 7.1912465e-39
4.5471401 -2.8412638 0.53174317 7.9288116e-39
4.6511078 -2.847018 0.54249388 8.5741796e-39
4.7522373 -2.8497183 0.54479831 8.6667325e-39
4.8514857 -2.8543556 0.53951377 8.7589296e-39
4.9520168 -2.8570044 0.52417982 8.8511266e-39
5.0439582 -2.8366182 0.53127909 9.2199091e-39
5.1498809 -2.8467128 0.55186069 9.4046605e-39
5.25032 -2.8567972 0.55494583 9.7730843e-39
5.3477492 -2.857861 0.54667658 9.9574755e-39
5.4441452 -2.8721867 0.5573312 9.8652813e-39
5.5338092 -2.8889341 0.57949942 9.1277163e-39
5.8866863 -2.8085003 0.58884978 2.3417691e-38
5.9517746 -2.8456733 0.5843091 2.3325853e-38
6.0550346 -2.8405337 0.5649057 1.6779245e-38
6.1353869 -2.8652167 0.56460357 1.2445694e-38
3.1743107 -2.7235339 0.52410513 5.992346e-39
3.2539577 -2.7537897 0.55415189 6.6377112e-39
3.3434796 -2.7540483 0.57440144 6.8220997e-39
3.4227135 -2.7724807 0.5877558 6.9146554e-39
4.0644889 -2.7082856 0.55993515 5.8086778e-39
4.172112 -2.7050347 0.52009118 6.8228283e-39
4.2509265 -2.7235022 0.54468983 6.1778163e-39
4.3553872 -2.7480078 0.55778956 7.1912465e-39
4.4474063 -2.756175 0.56930542 8.2975927e-39
4.5518742 -2.748137 0.58200586 9.0351577e-39
4.6408529 -2.7538664 0.57006246 9.2199091e-39
4.7548981 -2.7465653 0.56302321 9.0358766e-39
4.8465362 -2.7508571 0.55911851 9.2202678e-39
4.9459114 -2.7668223 0.56643021 9.4964974e-39
5.0586104 -2.7539816 0.59133047 9.9578371e-39
5.1452913 -2.7556539 0.57952189 1.014187e-38
5.2485523 -2.7799213 0.57312292 1.0326261e-38
5.8501368 -2.7638834 0.5883503 2.2219148e-38
5.9498901 -2.7457619 0.54354513 1.0510662e-38
6.0338612 -2.779475 0.56357008 9.5883441e-39
3.0610135 -2.647193 0.51009607 5.6235649e-39
3.1597419 -2.6538541 0.51049024 6.2689287e-39
3.2411723 -2.6634707 0.52892941 6.5458743e-39
3.3215148 -2.6799121 0.54734522 6.8224626e-39
3.7874937 -2.6092939 0.559187 6.9146666e-39
3.8587246 -2.6376488 0.55809659 6.7306327e-39
3.9553008 -2.6509209 0.56547451 6.6384357e-39
4.0530996 -2.6746368 0.54589742 6.1770988e-39
4.141058 -2.6814113 0.55811423 6.1770988e-39
4.2501287 -2.6702712 0.5868243 7.6525834e-39
4.3407845 -2.6865816 0.58640957 8.9429621e-39
4.4165239 -2.6996505 0.59895402 9.2195462e-39
4.581233 -2.675658 0.59247845 9.496496e-39
4.6382236 -2.6619244 0.58206797 9.6812488e-39
4.7443156 -2.6668284 0.58407545 9.0362409e-39
4.828073 -2.6852233 0.5895521 9.3128292e-39
5.0585113 -2.682864 0.59373772 1.0511014e-38
5.1088424 -2.6879883 0.59702951 1.106347e-38
5.7776737 -2.6186426 0.53927433 8.4830769e-39
5.8456416 -2.6598835 0.55183679 8.8514993e-39
5.9123845 -2.6928182 0.58004856 9.9578455e-39
2.9850118 -2.586849 0.50386357 4.9781955e-39
3.1574683 -2.5872238 0.50368327 6.2692874e-39
3.2146592 -2.5887451 0.52409208 6.6384315e-39
3.6412423 -2.5244367 0.55920434 9.8649268e-39
3.7388563 -2.5818655 0.56138718 7.4681991e-39
3.9968655 -2.5924077 0.5952161 7.8369747e-39
4.0330114 -2.5824018 0.59048831 7.3759965e-39
4.1132264 -2.5973322 0.59935981 7.3759965e-39
5.6667566 -2.5284066 0.54313689 8.7600226e-39
5.7303529 -2.5753782 0.55748916 9.2210007e-39
3.4728646 -2.4216089 0.55773163 9.6805355e-39
3.5492263 -2.4680338 0.56125492 1.0786882e-38
5.5613284 -2.4356225 0.54453242 8.8522182e-39
5.6200466 -2.4799554 0.56015807 9.4975876e-39
2.9500749 -2.3224943 0.55329382 5.4398897e-39
3.28655 -2.3005338 0.58795673 7.7444273e-39
3.3452115 -2.3418324 0.55250829 7.7444273e-39
3.4092882 -2.3832853 0.5568518 8.0210142e-39
5.3921461 -2.3091846 0.52235472 9.3131963e-39
5.4508162 -2.3460231 0.55049294 8.7600226e-39
5.5113082 -2.3882296 0.56458122 8.7603827e-39
2.5679932 -2.2695844 0.54704064 3.3186741e-39
2.7967744 -2.2058387 0.50638866 3.6878126e-39
2.8457997 -2.2226074 0.55019522 3.4115872e-39
2.906296 -2.2880287 0.54089016 5.1633028e-39
3.1517904 -2.2221336 0.53672016 7.3756462e-39
3.2446485 -2.2759831 0.55549169 7.560036e-39
5.2760048 -2.2184103 0.5388723 8.6678283e-39
5.343153 -2.2659371 0.55399376 8.4834357e-39
2.7716498 -2.1414781 0.5345329 3.4119488e-39
2.8206334 -2.1694894 0.54733461 3.5959813e-39
2.965265 -2.1197064 0.5398733 7.6522345e-39
3.0481696 -2.1620197 0.54624134 7.5600374e-39
3.1103022 -2.1924372 0.5605579 7.4678418e-39
5.0865946 -2.1039 0.5173887 9.0366109e-39
5.1502213 -2.1379099 0.5526219 7.8377075e-39
5.2264824 -2.1839144 0.5528478 8.1146546e-39
2.6939805 -2.0131881 0.57610965 3.7803768e-39
2.7272599 -2.0486848 0.54192168 4.9789185e-39
2.8473697 -2.0609152 0.53950638 7.4678432e-39
2.9304197 -2.0838118 0.56929189 7.5600374e-39
4.9642825 -2.0230041 0.54816872 7.1926955e-39
5.0368676 -2.0699601 0.55502111 7.1926969e-39
2.6800001 -1.9776473 0.57894737 5.3473437e-39
2.7359726 -1.9807774 0.57476097 7.4678432e-39
2.8079302 -1.9965624 0.58740228 7.6522317e-39
4.785512 -1.9110966 0.53164524 6.2703804e-39
4.8579636 -1.9490253 0.5489071 7.10086e-39
4.9218931 -1.9898874 0.55882061 6.9164687e-39
4.5987997 -1.8026223 0.50756955 5.9015993e-39
4.6515217 -1.8284658 0.53249943 6.2710993e-39
4.7387404 -1.8604386 0.55805922 8.3915974e-39
4.813364 -1.8751591 0.59259009 1.1894668e-38
4.4688535 -1.7142985 0.51644862 5.994511e-39
4.5502834 -1.7448866 0.54464817 8.2990416e-39
4.6410966 -1.7733454 0.5781917 1.0972713e-38
4.2829838 -1.604683 0.50051808 5.9941523e-39
4.3638411 -1.6259431 0.54024071 9.0369654e-39
4.4477782 -1.6611813 0.56005889 1.0603931e-38
4.5144935 -1.6925071 0.57749838 1.1709918e-38
4.1851325 -1.5131124 0.55117565 1.0604291e-38
4.2504311 -1.5483161 0.55501038 1.1064911e-38
4.3259234 -1.5866358 0.5635246 1.1433692e-38
3.9867272 -1.4051106 0.55502182 1.0051117e-38
4.0503941 -1.4362499 0.55369282 1.0419901e-38
4.1369524 -1.4824539 0.55317843 1.0696128e-38
3.790195 -1.3067881 0.57258564 1.0880158e-38
3.8502684 -1.3324951 0.54980832 1.0050759e-38
3.939198 -1.3791242 0.55360532 1.0327345e-38
3.593435 -1.2044756 0.56648636 1.0511375e-38
3.6464503 -1.2301984 0.55194563 1.00504e-38
3.7418022 -1.2773818 0.55007517 9.9582042e-39
3.4487636 -1.1265043 0.55274189 1.0050398e-38
3.5435259 -1.1766158 0.54987103 9.9582042e-39
3.2633622 -1.0195514 0.55279809 9.8663701e-39
3.3466251 -1.0688521 0.54785281 9.773813e-39
3.0826578 -0.90997088 0.56123042 9.9582056e-39
3.1500769 -0.94782937 0.54771507 9.9585658e-39
3.2147343 -0.98956865 0.55138397 9.7741745e-39
2.9597878 -0.83051306 0.57538533 1.0880521e-38
3.0599167 -0.86795205 0.54759312 8.944774e-39
3.1404021 -0.84164494 0.53388786 1.0974154e-38
3.2217925 -0.84229797 0.52810335 1.291062e-38
2.7592762 -0.72082406 0.55762297 1.0235151e-38
2.8544664 -0.75722647 0.55696249 1.0973435e-38
2.9395335 -0.765634 0.53797352 1.1711359e-38
3.0482588 -0.7738415 0.52898675 1.4847088e-38
3.1168945 -0.79211575 0.52242428 1.5493176e-38
2.5610578 -0.62013775 0.54576862 1.005112e-38
2.6446788 -0.66554576 0.54955697 1.0235153e-38
2.7400045 -0.68047762 0.51289237 1.2357087e-38
2.8170488 -0.69201034 0.50743228 1.3371598e-38
2.3530352 -0.51342237 0.55096877 6.3629348e-39
2.4606614 -0.55761951 0.54261488 9.6823376e-39
2.5142441 -0.5889104 0.55352092 1.005112e-38
3.8551972 -0.5595789 0.54305327 1.3002102e-38
3.9539149 -0.56870919 0.54996282 1.3186858e-38
4.0558071 -0.57511365 0.55422747 1.4754182e-38
4.1477156 -0.57882333 0.54629308 1.3833312e-38
4.263195 -0.54642379 0.55173838 1.540099e-38
4.3182578 -0.50659865 0.53208321 1.3190104e-38
2.28685 -0.4546299 0.53855813 1.4660543e-38
2.3112905 -0.43076175 0.55909193 1.5029686e-38
4.380414 -0.48114854 0.53098214 1.0328069e-38
4.4519043 -0.44711202 0.55425203 7.5607633e-39
4.5017715 -0.45160949 0.58886695 5.7168549e-39
2.3399341 -0.38866231 0.54954118 1.429212e-38
2.444572 -0.38275892 0.55287361 8.8525783e-39
2.532429 -0.38181308 0.58133429 8.299406e-39
2.6224711 -0.38477963 0.59778446 8.8525783e-39
4.2856832 -0.30318928 0.51320583 1.3826812e-38
4.3624029 -0.33140108 0.54716104 7.8330216e-39
4.4297585 -0.37574309 0.55905449 7.5589584e-39
4.0947943 -0.20669837 0.52071929 1.6777787e-38
4.1526203 -0.22694227 0.53416014 1.2533551e-38
4.2476959 -0.25974101 0.55606127 9.7633677e-39
4.3196321 -0.28944486 0.57727855 8.1031289e-39
3.9798629 -0.12109383 0.56137002 1.8534184e-38
4.0505228 -0.16545302 0.54400963 1.6872144e-38
4.1191564 -0.16105628 0.52503127 1.3276877e-38
3.7834454 -0.0088724419 0.52140707 1.4108438e-38
3.8509836 -0.035320707 0.54374212 1.5859435e-38
3.9344771 -0.074240908 0.56048435 1.807213e-38
3.5862987 0.096380472 0.51108181 1.134329e-38
3.6540117 0.065676436 0.54970992 1.5676483e-38
3.7447984 0.01831683 0.54968345 1.5676123e-38
3.8070195 0.0038219285 0.58714753 1.0971988e-38
3.397295 0.19749834 0.57100898 1.4939278e-38
3.4535427 0.17089611 0.54771876 1.300281e-38
3.5436776 0.12298469 0.55409235 1.4200994e-38
3.6078725 0.10123531 0.5625518 1.5860515e-38
3.2681391 0.27062789 0.55025893 1.4754524e-38
3.3441553 0.22005372 0.55194825 1.420171e-38
3.422816 0.20766842 0.51142931 7.7472958e-39
3.0922887 0.396873 0.59632343 1.5399543e-38
3.1782231 0.37906486 0.55593014 9.5919272e-39
3.2184391 0.33141023 0.55029678 9.6837627e-39
2.8859768 0.48171863 0.5461601 7.5618381e-39
2.9498706 0.44768703 0.54922968 9.8670876e-39
3.0486329 0.42358208 0.56243354 1.060501e-38
3.1480131 0.41622201 0.54267848 7.5632646e-39
2.6866612 0.58777666 0.54453814 1.1801387e-38
2.7326496 0.55947948 0.55165458 1.1893944e-38
2.8356962 0.52507728 0.5489834 1.5398462e-38
2.4932323 0.68528837 0.54571551 1.5299738e-38
2.5419571 0.66507459 0.55083781 1.4933849e-38
2.6465275 0.63190311 0.55088001 1.1801024e-38
2.478025 0.7685352 0.54165304 6.2653077e-39
2.5079961 0.73059446 0.56376648 8.1081329e-39
2.2276385 0.88570559 0.55263925 1.1428253e-38
2.3647864 0.87223709 0.55573803 2.5789413e-39
2.4325299 0.82541716 0.55041128 3.1321109e-39
2.0925117 0.99666387 0.56492019 3.039925e-39
2.1546216 0.97460479 0.54899323 5.5274008e-39
2.2111418 0.92593795 0.55253398 7.8311901e-39
2.3406301 0.90395886 0.53154701 3.132471e-39
1.8986043 1.0968205 0.50321448 8.3865135e-39
1.9489774 1.0666856 0.54945421 6.9121219e-39
2.043736 1.0236875 0.54651463 8.9393664e-39
2.1049423 1.0034478 0.51028597 8.9451313e-39
1.7643014 1.1912715 0.55643076 2.4219706e-39
1.8393865 1.1694329 0.55077237 4.437639e-39
1.9261665 1.1515189 0.55144876 6.7266432e-39
1.5909268 1.2531072 0.54155594 1.198178e-38
1.6529422 1.2606162 0.5528034 3.598498e-39
1.7203066 1.2250253 0.55035371 1.8641137e-39
1.8698868 1.2281035 0.53893286 2.4024884e-39
1.9212658 1.2220486 0.55298644 3.5930904e-39
1.5955443 1.3288735 0.50633341 5.3444402e-39
1.6233209 1.3528823 0.55345762 4.6994324e-39
1.598424 1.4061809 0.50963306 6.08455e-39
1.628993 1.4167297 0.56053811 3.6881685e-39
6.1739388 -3.1218913 0.62530887 1.1428302e-38
6.2601929 -3.1392164 0.62484825 2.2125152e-38
6.3116903 -3.1640439 0.60910004 2.3325492e-38
5.945703 -3.0189185 0.61335409 1.0142238e-38
6.0628767 -3.0412011 0.64238793 1.502609e-38
6.1488299 -3.0413728 0.63869929 2.2863797e-38
6.2194347 -3.0858879 0.62012142 2.3417328e-38
3.4387422 -2.9031644 0.68759477 7.0061322e-39
3.5543952 -2.9105558 0.6869787 6.9139352e-39
3.6345611 -2.918349 0.69131118 7.4678292e-39
5.5908008 -2.9012399 0.6049583 8.9433264e-39
5.6637802 -2.9140131 0.61393315 9.2206364e-39
5.7359133 -2.9213221 0.61680639 9.9582042e-39
5.8519201 -2.9483609 0.63519549 1.1337907e-38
5.9587936 -2.9359632 0.67603594 2.0188686e-38
6.0489812 -2.9562252 0.65527534 2.3141103e-38
6.1080256 -2.9898863 0.62568337 2.341733e-38
3.3529792 -2.8527839 0.64077324 6.8217409e-39
3.4420166 -2.858541 0.65111005 6.9139352e-39
3.5367198 -2.8608325 0.6558001 7.190522e-39
3.6175327 -2.881537 0.67644882 7.8366131e-39
5.3753901 -2.8068702 0.61852181 1.0049318e-38
5.4596291 -2.8343906 0.63885051 8.2979598e-39
5.5610843 -2.8568513 0.66075909 8.0213729e-39
5.6358266 -2.8497536 0.66001695 8.7593023e-39
5.7425952 -2.8585122 0.66388506 1.1521224e-38
5.8663878 -2.8342786 0.66419357 2.2218428e-38
5.9401684 -2.8663738 0.6465975 2.341769e-38
6.0638375 -2.8098845 0.60365534 1.7423178e-38
3.3763168 -2.7953827 0.60205621 6.9139338e-39
3.459214 -2.7662883 0.61974066 7.1912437e-39
3.5162561 -2.7783821 0.66962105 8.3901498e-39
4.4714408 -2.7126653 0.60580081 9.3117418e-39
4.5214262 -2.7115629 0.60338771 9.3117432e-39
4.9630713 -2.7098284 0.60531783 1.0050037e-38
5.0202279 -2.7268357 0.60188049 1.0326622e-38
5.170516 -2.705508 0.61170703 1.25386e-38
5.2572098 -2.7394938 0.62762582 1.2170176e-38
5.3480816 -2.7465966 0.66815519 1.0326624e-38
5.460484 -2.7474177 0.6895836 8.6667465e-39
5.5591497 -2.7610314 0.68915474 1.1984713e-38
5.6045637 -2.7790151 0.68730307 1.1246068e-38
5.7527213 -2.7306452 0.64353514 2.341769e-38
5.8286967 -2.7633893 0.64214206 2.341769e-38
5.9545279 -2.7365365 0.6268248 1.9452923e-38
6.0435052 -2.7765243 0.61632723 1.5119366e-38
3.8610144 -2.6106575 0.60361278 7.9291759e-39
3.9525552 -2.6232915 0.60882813 8.0213687e-39
4.1740174 -2.613508 0.61677992 7.9291703e-39
4.249403 -2.6251271 0.62084246 9.0351563e-39
4.3517771 -2.6392324 0.62523615 9.4961331e-39
4.4502439 -2.6534779 0.61448216 9.4964946e-39
4.5464239 -2.6405668 0.60569781 9.5886902e-39
4.6467094 -2.6156733 0.60400057 9.773443e-39
4.7581291 -2.6208105 0.61024034 9.2206294e-39
4.8514509 -2.6373851 0.62272614 9.1280764e-39
4.9584513 -2.6525888 0.62524331 1.0049674e-38
5.0228982 -2.6585686 0.61483496 1.0879437e-38
5.1531234 -2.6599419 0.64919746 1.4291393e-38
5.2393413 -2.6377778 0.67921317 1.5121874e-38
5.356822 -2.640233 0.68100023 1.3551676e-38
5.4443998 -2.6740389 0.67941165 1.4839183e-38
5.5681186 -2.6192918 0.655653 2.3048907e-38
5.6517115 -2.6541193 0.64004564 2.341769e-38
5.7541595 -2.6512082 0.63533771 2.2679766e-38
5.8494515 -2.6404734 0.64473397 1.5581422e-38
5.9448032 -2.6745772 0.66836923 1.3276174e-38
3.6688678 -2.5168304 0.62171894 8.0210128e-39
3.7557156 -2.5356748 0.63152522 8.0210114e-39
3.8543332 -2.5404973 0.63952202 8.1135644e-39
3.9519377 -2.5493062 0.62061548 8.2057586e-39
4.0460429 -2.5406055 0.63730097 8.2979528e-39
4.1504784 -2.5561347 0.64627934 8.7585722e-39
4.2529411 -2.5541444 0.64660501 9.5883329e-39
4.3533454 -2.5480225 0.6334669 9.9574741e-39
4.4450088 -2.5457978 0.62210411 9.9571154e-39
4.5492864 -2.5569401 0.61372596 9.9574741e-39
4.6490946 -2.5494161 0.62468433 1.0234064e-38
4.7542939 -2.5476546 0.64174199 1.0879435e-38
4.8539968 -2.5565455 0.63611543 1.1525163e-38
4.947679 -2.5536714 0.64160073 1.3553827e-38
5.0506802 -2.5344131 0.67475301 1.6320415e-38
5.1470461 -2.5542388 0.68031645 1.6505167e-38
5.2433124 -2.5805216 0.68248641 1.6228222e-38
5.3937144 -2.5032756 0.6614455 2.3509886e-38
5.4542537 -2.5374756 0.65993494 2.3417689e-38
5.5467577 -2.5601182 0.6460036 2.3417689e-38
5.6733193 -2.5554709 0.65042657 1.9269606e-38
5.753233 -2.5456252 0.63916862 1.1802118e-38
5.8376718 -2.5695989 0.67333883 1.1248944e-38
2.7473912 -2.4248967 0.68434256 6.2689315e-39
2.8313503 -2.449599 0.69641709 3.8718479e-39
3.4822793 -2.4096003 0.63807726 9.772371e-39
3.5576081 -2.4413092 0.66616452 8.2975997e-39
3.6466115 -2.4758847 0.66111869 7.9291759e-39
3.7582476 -2.4744883 0.68526769 8.1135629e-39
3.8550792 -2.4576311 0.67336982 8.2979542e-39
3.9458098 -2.4581051 0.66877818 7.8366173e-39
4.0561681 -2.4472811 0.67741179 8.0213701e-39
4.1484036 -2.4448559 0.66949165 8.1139287e-39
4.2434306 -2.4479568 0.65411615 8.6663836e-39
4.3533735 -2.4486837 0.64320666 1.0049673e-38
4.4331598 -2.453038 0.62823886 1.0418455e-38
4.5529089 -2.451067 0.65109777 1.1064185e-38
4.6510396 -2.4448094 0.66235763 1.1894305e-38
4.7426977 -2.4503167 0.64867479 1.4199195e-38
4.84092 -2.4554889 0.66351444 1.5766881e-38
4.9506249 -2.4600255 0.68477839 1.6505166e-38
