# .PCD v0.7 - Point Cloud Data file format
VERSION 0.7
FIELDS x y z rgb
SIZE 4 4 4 4
TYPE F F F F
COUNT 1 1 1 1
WIDTH 1033
HEIGHT 1
VIEWPOINT 0 0 0 1 0 0 0
POINTS 1033
DATA ascii
2.3449974 -1.6675259 -0.39303273 1.4015521e-38
2.4186709 -1.6864319 -0.39698213 1.4754166e-38
2.748219 -1.6603618 -0.30576417 6.6402237e-39
2.8686178 -1.6519578 -0.30904585 8.2061019e-39
2.1981461 -1.5317988 -0.39849734 1.198686e-38
2.2302952 -1.571651 -0.39256653 1.2262725e-38
2.3017132 -1.599543 -0.39513627 1.2448554e-38
2.6804211 -1.5231701 -0.31243756 1.5581374e-38
2.7611306 -1.5478507 -0.31237999 1.272293e-38
2.8164382 -1.5751332 -0.30434254 1.4936679e-38
2.6757941 -1.4427027 -0.3122476 1.198721e-38
2.7399786 -1.4604961 -0.31813851 1.2724421e-38
2.8017154 -1.414946 -0.30863672 1.5120436e-38
2.596576 -1.3081102 -0.331503 1.8531675e-38
2.6554046 -1.3436369 -0.32249185 1.5028242e-38
2.757097 -1.3383416 -0.3349722 1.6134586e-38
2.8502505 -1.322841 -0.32978791 1.1799586e-38
2.9021573 -1.3060164 -0.30658543 7.8319314e-39
2.5895321 -1.2653407 -0.34430149 1.9730575e-38
2.6571007 -1.2900362 -0.33957306 1.6503009e-38
2.7451236 -1.2947522 -0.34639117 1.2537874e-38
2.8694971 -1.2732881 -0.35390872 1.0321931e-38
2.9058716 -1.2405901 -0.35120979 7.8308454e-39
2.8730049 -1.1465027 -0.34805015 6.0798473e-39
2.9024513 -1.1929392 -0.377244 6.7252181e-39
1.1887326 -1.0540733 -0.39653891 6.6366448e-39
1.2299402 -1.071623 -0.39154977 7.0043469e-39
2.8760591 -1.0530777 -0.34976032 8.1059777e-39
1.1487687 -0.92487735 -0.39182979 1.8541408e-38
1.2411721 -0.91100883 -0.37292278 1.4114573e-38
1.3119221 -0.92713135 -0.35308418 1.2997042e-38
2.8874004 -0.95090914 -0.35017461 9.1183234e-39
1.1711578 -0.86228579 -0.39149445 9.5995167e-39
1.2173374 -0.8411954 -0.35373792 7.8340936e-39
2.8520219 -0.84996337 -0.34918854 8.565151e-39
1.1935455 -0.74727291 -0.32945442 6.6261799e-39
1.2194159 -0.7427417 -0.36650509 5.8886205e-39
1.3019378 -0.72632885 -0.39536536 5.8897065e-39
2.7939799 -0.7277205 -0.33581594 7.9197802e-39
2.8102732 -0.76370233 -0.36105239 8.1048917e-39
1.2346846 -0.68524224 -0.32278678 6.8091348e-39
2.7938533 -0.65055031 -0.33166391 7.6435534e-39
2.8089378 -0.6514985 -0.38175428 7.7357519e-39
2.7658985 -0.54864401 -0.34629947 6.9067143e-39
2.8069158 -0.58972102 -0.38843396 7.3673323e-39
2.6677179 -0.43311489 -0.3483929 6.5379402e-39
2.7170289 -0.48352584 -0.35232812 6.7226873e-39
2.5909629 -0.32622826 -0.3754299 1.269059e-38
2.6161978 -0.3581107 -0.34284702 8.9249386e-39
2.573565 -0.25000715 -0.35059881 6.4453956e-39
2.5424647 -0.14973152 -0.34980133 6.0798431e-39
2.498714 -0.0039788312 -0.3056716 5.5266679e-39
2.5397291 -0.051423982 -0.34980741 6.3560698e-39
2.4771502 0.053128608 -0.31476524 5.3426382e-39
2.5463278 0.048151951 -0.36617482 6.9099611e-39
2.4674616 0.16078524 -0.33910131 6.0805619e-39
2.5174646 0.13341472 -0.3754057 6.9099611e-39
2.2691386 0.29828542 -0.37299293 3.0417173e-39
2.3766742 0.28693193 -0.34955239 6.0827255e-39
2.4315093 0.24336483 -0.35389334 6.2653119e-39
2.195246 0.36411256 -0.3846586 1.1882037e-38
2.2232361 0.34610111 -0.34504831 3.8714864e-39
2.3221438 0.30065376 -0.32971904 6.1749282e-39
2.1937385 0.4504379 -0.39022663 1.0326978e-38
2.2340381 0.44487607 -0.34894636 1.9368215e-39
2.315114 0.49677816 -0.31574905 4.2380969e-39
2.2870193 0.5052911 -0.38532895 3.6870867e-39
2.3585622 0.52436972 -0.36354008 6.358232e-39
2.4573548 0.56648445 -0.35320085 8.0159415e-39
2.5074189 0.58889812 -0.31702858 9.0286473e-39
2.4833312 0.64564955 -0.38291892 7.6471562e-39
2.5304101 0.65604526 -0.33879501 8.2918039e-39
2.1744401 0.79080021 -0.34660935 8.1201056e-39
2.2638609 0.77109474 -0.3492285 8.2994088e-39
2.3408916 0.74175286 -0.3588295 6.9128492e-39
2.4488945 0.72516674 -0.34710974 6.0819997e-39
2.5328906 0.70617849 -0.32009774 7.0943467e-39
2.0927939 0.87199295 -0.35293248 4.0634993e-39
2.1258779 0.82410502 -0.3470898 6.8308157e-39
2.0859654 0.94878983 -0.34890047 4.1567823e-39
2.0937877 1.0366899 -0.35713756 3.4203117e-39
2.1083775 1.0793843 -0.33384463 4.0645909e-39
2.1453927 1.150264 -0.34593007 5.346985e-39
2.1827819 1.2427859 -0.34015206 6.2656763e-39
2.2085135 1.2755326 -0.37940532 6.1738394e-39
2.1970961 1.3065161 -0.3120386 6.2653161e-39
2.2184019 1.3524122 -0.35064092 6.3578677e-39
2.2396991 1.4500754 -0.34943804 6.5415401e-39
2.2685921 1.5461533 -0.34891716 6.3567901e-39
2.3018761 1.5971965 -0.39239809 6.3567887e-39
2.2927213 1.6523515 -0.32109582 6.3567887e-39
2.3112023 1.6571119 -0.36911717 6.4486242e-39
2.25035 1.7542123 -0.34742334 7.0010763e-39
2.3071947 1.7168729 -0.38294575 6.6326553e-39
2.216218 1.845727 -0.34954002 7.3698574e-39
2.2407856 1.9504722 -0.34865952 7.3705791e-39
2.2588611 2.019783 -0.35417348 7.2783835e-39
2.9817009 -2.4152503 -0.21586582 1.6966846e-38
3.0115106 -2.4216912 -0.20938221 1.5123295e-38
2.8523407 -2.327508 -0.21364348 1.2910245e-38
2.9718192 -2.3437319 -0.21764447 1.7799488e-38
3.0055802 -2.3793461 -0.20987225 1.6047411e-38
2.6879447 -2.2169507 -0.2035614 1.5400253e-38
2.7548828 -2.2381806 -0.22127815 1.2173057e-38
2.8508499 -2.2426672 -0.22872861 1.11589e-38
2.9465714 -2.2351618 -0.22300762 1.576939e-38
2.5802577 -2.1267316 -0.21402884 1.3371246e-38
2.6551003 -2.1462877 -0.23038609 1.180645e-38
2.7541714 -2.149251 -0.24215859 1.1437308e-38
2.8543599 -2.1574218 -0.26189923 1.3924044e-38
2.939395 -2.1411595 -0.24675192 1.3554902e-38
2.4848249 -2.0267012 -0.22449276 1.355672e-38
2.5556383 -2.0424159 -0.24056625 1.3189744e-38
2.6657686 -2.0615137 -0.26874021 1.2819146e-38
2.7348177 -2.0730669 -0.27468449 1.5860154e-38
2.8133776 -2.0904062 -0.29221451 1.9363218e-38
2.9579399 -2.0506723 -0.25024241 8.3923092e-39
2.369611 -1.9218284 -0.23483638 1.4477224e-38
2.4488361 -1.9450752 -0.25221875 1.4386108e-38
2.5428464 -1.9593245 -0.27521065 1.4108077e-38
2.6289976 -1.9889688 -0.29094306 1.7334554e-38
2.8964059 -1.90696 -0.29247716 1.6500844e-38
2.9381609 -1.9536136 -0.24873465 9.4057381e-39
2.1802888 -1.8108209 -0.20663843 1.4846369e-38
2.2609401 -1.8342226 -0.23808283 1.5582842e-38
2.3496468 -1.8503872 -0.26423553 1.6043456e-38
2.4392328 -1.8699168 -0.28174254 1.4199181e-38
2.8962891 -1.854682 -0.29200113 1.3646378e-38
2.9124458 -1.8453339 -0.24616338 1.4569412e-38
1.9937918 -1.7043451 -0.20388797 1.4660166e-38
2.063302 -1.7210258 -0.21421577 1.6320046e-38
2.1434722 -1.7370868 -0.23741569 1.6132761e-38
2.2430596 -1.7411575 -0.27887639 1.3360029e-38
2.3218172 -1.7807167 -0.28320318 1.5483415e-38
2.8965652 -1.708505 -0.28622314 1.3372653e-38
2.9169109 -1.7523388 -0.2476344 7.6543757e-39
1.8828069 -1.6522874 -0.24228317 1.2717149e-38
1.9384792 -1.6455662 -0.25651151 1.1240594e-38
2.0428386 -1.6606504 -0.26600176 1.1146965e-38
2.1369116 -1.6812228 -0.28102461 9.8537052e-39
2.697371 -1.654635 -0.29962036 6.4561954e-39
2.8852053 -1.6407987 -0.26295322 9.1305833e-39
2.9071863 -1.6739094 -0.22699049 8.0227952e-39
2.7773576 -1.5147456 -0.28139141 1.3832203e-38
2.8365686 -1.5504355 -0.24370736 1.1895735e-38
2.6897771 -1.4271597 -0.29237759 1.0788678e-38
2.7664025 -1.4390665 -0.2509467 1.0880518e-38
2.805192 -1.4614406 -0.25178033 1.4753452e-38
2.6750071 -1.3858974 -0.28616402 9.4968645e-39
2.7861695 -1.3755617 -0.24597153 1.9639104e-38
2.8566923 -1.3458662 -0.25325397 1.3737138e-38
2.9202228 -1.3151277 -0.23968035 1.1430802e-38
2.8946874 -1.2222525 -0.27421713 8.0166758e-39
2.9184928 -1.2598726 -0.24346916 6.3600467e-39
2.7823837 -1.1097617 -0.2351834 1.4562175e-38
2.8629532 -1.1622193 -0.25902262 6.3582418e-39
2.9042923 -1.1938145 -0.20760992 3.9651366e-39
2.7642133 -1.0455654 -0.23576745 1.9540013e-38
2.836129 -1.0439385 -0.28557578 1.0316861e-38
2.791225 -0.98440993 -0.22011125 1.548776e-38
2.8533967 -0.94550288 -0.25164914 1.603767e-38
1.2202748 -0.82086676 -0.25008148 3.0381272e-39
2.8721619 -0.85289019 -0.25179076 1.5944389e-38
2.9039676 -0.86462033 -0.22026615 1.2075441e-38
1.1935415 -0.73375434 -0.27786013 5.3386879e-39
1.2112111 -0.7518813 -0.23426822 2.0268591e-39
2.6992002 -0.70366633 -0.20247269 1.1245664e-38
2.7688026 -0.7299068 -0.25761172 1.4005401e-38
2.820828 -0.78025281 -0.25011787 1.6680515e-38
1.2324808 -0.67407554 -0.25094891 4.602569e-39
2.6858881 -0.6397016 -0.21849376 2.0371214e-38
2.7524729 -0.65463793 -0.2667717 1.0317222e-38
2.6736 -0.54892892 -0.22416444 1.9168711e-38
2.7394171 -0.5515849 -0.2745809 7.4580846e-39
2.6514988 -0.44617188 -0.24571295 1.206966e-38
2.7071087 -0.48931614 -0.28041616 6.8137984e-39
2.5976229 -0.32189766 -0.22700836 1.6312454e-38
2.6142781 -0.35522962 -0.25461486 8.0116241e-39
2.5707352 -0.24991891 -0.25084677 7.3676966e-39
2.4897175 -0.13433635 -0.20546313 6.905994e-39
2.5245759 -0.14977171 -0.25521964 5.801094e-39
2.493063 -0.029608404 -0.23062225 6.1698737e-39
2.5071611 -0.059696976 -0.25935534 5.6177845e-39
2.4614236 0.050687101 -0.25018254 5.5255875e-39
2.383198 0.17008133 -0.24044651 4.9734941e-39
2.4141276 0.12715526 -0.25953287 5.2497223e-39
2.2790854 0.28573793 -0.21429273 2.1197708e-39
2.3500497 0.24838784 -0.25244504 4.4217679e-39
2.4007788 0.20191009 -0.29784691 4.6057948e-39
2.2483895 0.3477971 -0.25174841 3.1357248e-39
2.311028 0.30077091 -0.28089818 4.4232154e-39
2.2723165 0.43749109 -0.25441906 2.0283011e-39
2.3230126 0.48195124 -0.22991017 2.3041621e-39
2.3745356 0.51408893 -0.23596188 3.5945337e-39
2.4559543 0.55126745 -0.25223473 7.0032357e-39
2.5138526 0.58641696 -0.25983223 9.3055971e-39
2.5612943 0.65092152 -0.24973412 9.4892653e-39
2.6002872 0.69698447 -0.23069058 8.7517003e-39
2.1854663 0.79687971 -0.29749838 1.7887028e-38
2.2768903 0.7885105 -0.26411399 6.5440708e-39
2.3460689 0.76655614 -0.24832037 5.0671387e-39
2.4467912 0.73019868 -0.24875361 5.0667729e-39
2.5514419 0.70878774 -0.25851598 6.4482585e-39
2.0988038 0.89671201 -0.29498678 1.7331699e-38
2.1407068 0.85359275 -0.28974292 1.5214437e-38
2.2580762 0.84781748 -0.24738495 5.0678576e-39
2.0935471 0.95409143 -0.28921291 1.5120445e-38
2.1477275 0.95360184 -0.27309465 1.0141149e-38
2.2265718 0.94686836 -0.23641302 4.8838264e-39
2.0966551 1.0102825 -0.29730257 5.6250362e-39
2.1612282 1.0533752 -0.2531631 7.0968873e-39
2.2055793 1.0201311 -0.2149476 4.4224881e-39
2.1654932 1.148975 -0.24877572 5.528114e-39
2.17945 1.245657 -0.25238907 5.7121452e-39
2.204911 1.286357 -0.21161655 4.5136048e-39
2.1961889 1.3123991 -0.26872689 6.1738394e-39
2.2097027 1.3562503 -0.24481839 5.5277525e-39
2.2279062 1.4506905 -0.248006 5.7117836e-39
2.2490892 1.5488122 -0.2486527 5.711785e-39
2.2616463 1.6535126 -0.24999577 5.8043366e-39
2.225708 1.7484241 -0.25178093 6.2645945e-39
2.2101068 1.8460388 -0.25060007 6.7255698e-39
2.2314434 1.9502509 -0.24964429 6.9106813e-39
2.2421808 2.0111637 -0.24833471 7.0028784e-39
2.9311473 -2.5190287 -0.10146916 1.2909524e-38
2.7922597 -2.4399369 -0.10068951 1.5675393e-38
2.8371465 -2.4395247 -0.1019606 1.3278309e-38
2.9636862 -2.4374297 -0.15760338 1.4938189e-38
3.0168881 -2.4405491 -0.1452588 1.3094634e-38
2.6795592 -2.3531256 -0.10176535 2.0010028e-38
2.7632775 -2.3267975 -0.1184402 1.5767594e-38
2.8387144 -2.3552017 -0.13611789 1.6044179e-38
2.970947 -2.3402631 -0.19181003 1.3556691e-38
3.0080214 -2.3505058 -0.14940464 1.2818047e-38
2.5669367 -2.2228308 -0.10757875 1.8533833e-38
2.6564584 -2.2407753 -0.14168301 1.6320769e-38
2.7327023 -2.2773633 -0.15489224 1.6044181e-38
2.9822111 -2.2368085 -0.14998952 1.5583559e-38
3.0050371 -2.2901285 -0.14047405 1.2725851e-38
2.4701536 -2.1175487 -0.12699361 1.5030406e-38
2.5438693 -2.1513145 -0.15157148 1.6321131e-38
2.621789 -2.1826277 -0.18001248 1.5951984e-38
2.9832325 -2.1642239 -0.15851897 1.4569772e-38
3.0055809 -2.1253848 -0.13922238 1.1711711e-38
2.2941232 -2.0046644 -0.11251339 1.3465971e-38
2.3653488 -2.0316584 -0.14430587 1.4846731e-38
2.4354188 -2.066962 -0.15802653 1.521515e-38
2.5125766 -2.0898941 -0.18796518 1.5768318e-38
2.9901247 -2.0403936 -0.18853441 1.6970099e-38
3.0123751 -2.0578394 -0.1413763 9.9607153e-39
2.1647649 -1.9105057 -0.10808146 1.4385391e-38
2.2532949 -1.9379666 -0.14847887 1.5491741e-38
2.3357167 -1.969731 -0.17706935 1.4292844e-38
2.9597945 -1.947968 -0.15061495 1.4939997e-38
2.0662694 -1.8199761 -0.13546933 1.5675768e-38
2.1421471 -1.8570515 -0.14317651 1.5399548e-38
2.2329657 -1.8722435 -0.1874342 1.2909913e-38
2.9184184 -1.847762 -0.15057667 1.5953067e-38
1.974298 -1.7260293 -0.16557372 1.3926219e-38
2.0426302 -1.756302 -0.17526697 1.4200641e-38
2.1214559 -1.7837124 -0.1916116 1.3647111e-38
2.9433126 -1.7540287 -0.1481926 1.0879416e-38
1.8834777 -1.6614419 -0.1822468 1.6136001e-38
1.9251664 -1.6781976 -0.17488401 1.3832933e-38
2.8928835 -1.6076312 -0.19300033 9.0376646e-39
2.9405115 -1.6536014 -0.15127939 1.6505509e-38
2.8557088 -1.5379229 -0.15483414 1.337087e-38
2.9104974 -1.5897583 -0.13182279 1.6320401e-38
2.7890124 -1.4265361 -0.15457563 1.00504e-38
2.8173661 -1.4759884 -0.1413036 1.2355647e-38
2.7935665 -1.3766942 -0.15182403 1.9546908e-38
2.8557863 -1.347708 -0.14881143 1.5212268e-38
2.947186 -1.3175496 -0.14886354 1.2906291e-38
2.974154 -1.2516609 -0.16912842 9.4946925e-39
3.0078652 -1.2588435 -0.12756513 1.2167271e-38
2.7827094 -1.1062 -0.15729287 1.6774886e-38
2.8488035 -1.1404204 -0.16409056 1.2536081e-38
2.9355736 -1.182826 -0.14996822 1.2259481e-38
2.7595365 -1.0419432 -0.15103397 1.6313524e-38
2.8030851 -1.002668 -0.12655881 1.1887774e-38
2.7900159 -0.98681164 -0.18812703 1.7058323e-38
2.8377397 -0.95539016 -0.15019563 9.4013983e-39
1.2346298 -0.81101805 -0.18604681 1.5680418e-39
2.775866 -0.84467649 -0.11432812 6.6373721e-39
2.8518398 -0.85642374 -0.16270469 1.2354559e-38
1.2518357 -0.75540024 -0.18065846 2.3974437e-39
2.6890798 -0.70977855 -0.14008963 1.2350914e-38
2.7482958 -0.75277007 -0.13730015 1.4472518e-38
2.8186581 -0.78080171 -0.16762231 1.8161788e-38
1.2555642 -0.68463284 -0.18763261 2.2126923e-39
2.666662 -0.64786202 -0.1487969 5.3476744e-39
2.6791451 -0.55494285 -0.15647253 4.1502369e-39
2.7117376 -0.52426815 -0.11612832 4.0608719e-39
2.6576645 -0.44533405 -0.15401389 1.0865701e-38
2.7087896 -0.49082148 -0.12766749 5.2522236e-39
2.5938954 -0.35168317 -0.15924168 1.8801363e-38
2.6181245 -0.34291175 -0.13879114 1.4469267e-38
2.7430475 -0.3086192 -0.10502331 5.3440857e-39
2.5601728 -0.24517107 -0.18200608 1.8251443e-38
2.6421833 -0.249607 -0.13938926 6.7295761e-39
2.7344422 -0.26994583 -0.10970093 2.6725943e-39
2.4905245 -0.13654967 -0.18587704 2.1567942e-38
2.5547473 -0.14358579 -0.1529922 9.7709333e-39
2.6243827 -0.17004235 -0.12560326 2.5804253e-39
2.489167 -0.04409169 -0.18242604 1.8433299e-38
2.5503998 -0.053966183 -0.13601549 1.0323733e-38
2.3955672 0.094507396 -0.17865719 1.0781075e-38
2.446728 0.052699376 -0.16965146 1.6497197e-38
2.5558505 0.054084778 -0.13085572 8.4776343e-39
2.623632 0.03708487 -0.11622257 7.6471506e-39
2.2643609 0.18565498 -0.12942022 7.8347998e-39
2.3541522 0.14685097 -0.16111696 1.2348765e-38
2.4408267 0.12885398 -0.11832232 6.4504193e-39
2.5086908 0.10331306 -0.10403292 6.4500591e-39
2.252203 0.25441691 -0.14511286 1.198539e-39
2.3224928 0.21925133 -0.18708496 4.5143222e-39
2.2593739 0.34884298 -0.15016831 9.230325e-40
2.2876115 0.42084596 -0.16953653 2.6743893e-39
2.3308873 0.45999405 -0.14125143 5.2558572e-39
2.3846495 0.51943791 -0.14957492 1.198539e-39
2.4279258 0.56814319 -0.14674146 1.381847e-39
2.3551524 0.67391729 -0.12068377 1.474584e-38
2.4666762 0.64698279 -0.13892129 6.909231e-39
2.529001 0.65851063 -0.1634097 1.0043871e-38
2.2880199 0.78126192 -0.13661642 1.0413021e-38
2.3370171 0.74665666 -0.15296623 8.1999754e-39
2.4369032 0.71866816 -0.18028812 4.88166e-39
2.5016546 0.70122379 -0.19667765 4.9731354e-39
2.2622383 0.84936672 -0.1504166 7.4631321e-39
2.2444255 0.95139164 -0.15175985 6.3571474e-39
2.1892099 1.0818182 -0.15717427 4.4214063e-39
2.2273605 1.0389831 -0.14315678 6.1723974e-39
2.1820452 1.1493523 -0.14928319 4.4210476e-39
2.2027075 1.1036237 -0.10167446 8.5683824e-39
2.1909297 1.2328173 -0.14935501 4.3284904e-39
2.2055368 1.283762 -0.15155128 4.3284918e-39
2.1996551 1.348032 -0.10153357 4.6965541e-39
2.2081463 1.3492615 -0.1495851 4.2366563e-39
2.1941714 1.4717538 -0.11560358 4.4196085e-39
2.2083135 1.4454348 -0.15721184 4.3288534e-39
2.1895673 1.5569849 -0.12904838 4.5118027e-39
2.2097239 1.5448246 -0.17595468 4.6050801e-39
2.1815443 1.6506782 -0.1396368 4.6965541e-39
2.208946 1.6446794 -0.19027738 4.7891113e-39
2.1886294 1.7483606 -0.14266838 4.8816628e-39
2.2027478 1.75911 -0.19004501 5.250088e-39
2.1964757 1.8165978 -0.12722869 4.9738599e-39
2.2114773 1.8588732 -0.15622632 5.3422808e-39
2.2311387 1.9509221 -0.15014137 5.5277511e-39
2.2422316 2.0115166 -0.15722224 5.8046981e-39
2.9935753 -2.6502414 -0.044062201 1.3462702e-38
3.0108058 -2.6341076 -0.050447606 1.3001721e-38
2.8719943 -2.5306764 -0.09763632 1.4109506e-38
2.9654746 -2.5408759 -0.075336866 1.364745e-38
3.0254717 -2.5534914 -0.028520143 1.4200267e-38
2.7931969 -2.4810636 -0.096693672 1.6968288e-38
2.8780773 -2.4306791 -0.081960827 1.5859428e-38
2.9437721 -2.4614732 -0.06238031 1.5951625e-38
3.0263848 -2.4498153 -0.053204063 1.3094278e-38
2.7914548 -2.361918 -0.097433247 1.6228211e-38
2.8456497 -2.3816612 -0.092165321 1.6136374e-38
3.0155432 -2.3489501 -0.051944792 1.1895731e-38
2.9986672 -2.2185311 -0.096505791 1.5675395e-38
3.0150955 -2.2514281 -0.049979761 1.4845994e-38
2.9974837 -2.1570215 -0.089597747 1.3003526e-38
3.0123262 -2.147172 -0.050054986 1.272622e-38
3.0293865 -2.0590172 -0.050846729 8.3923064e-39
2.1532826 -1.9126588 -0.09939307 1.373931e-38
2.9599574 -1.936464 -0.057900522 1.5030752e-38
3.0113113 -1.9862747 -0.029060369 1.0696478e-38
2.9327056 -1.8515458 -0.050451133 1.650552e-38
2.9523945 -1.7526881 -0.051552851 8.5730922e-39
2.9667346 -1.6584598 -0.051415488 7.4678236e-39
2.877326 -1.5360407 -0.049835019 1.4384301e-38
2.9099286 -1.5858839 -0.052802801 1.4936e-38
2.7995639 -1.4002757 -0.096914068 1.300102e-38
2.8192005 -1.4426324 -0.050665464 1.0696129e-38
2.7996178 -1.3875644 -0.094119564 1.890154e-38
2.8407652 -1.3588527 -0.050460424 1.7241292e-38
2.9532177 -1.3168675 -0.051419511 1.3643855e-38
2.9953897 -1.2270468 -0.06116046 1.3457639e-38
3.0125167 -1.2580411 -0.050305877 1.2628608e-38
2.7945116 -1.1053077 -0.061385885 1.8618772e-38
2.8511579 -1.1311711 -0.044041827 1.5852548e-38
2.9563591 -1.1822176 -0.055592064 1.4194474e-38
2.7643807 -1.0463493 -0.053101424 1.6128769e-38
2.8129053 -1.0069119 -0.047809508 1.0689238e-38
2.794095 -0.91216123 -0.041886572 5.8050625e-39
2.8176072 -0.96113592 -0.052594941 5.9883607e-39
2.7726347 -0.84860969 -0.050090518 4.6086885e-39
2.8011601 -0.89997423 -0.096969321 3.7778432e-39
2.6903598 -0.71747559 -0.0513089 1.6407522e-38
2.7479346 -0.77163351 -0.0514418 5.2536992e-39
2.6738589 -0.65457451 -0.06127673 1.0054988e-38
2.7612219 -0.64134997 -0.020677976 5.4384155e-39
2.802242 -0.61059517 -0.016422447 3.8685927e-39
2.6875772 -0.58517504 -0.074278109 9.6062219e-39
2.754066 -0.54450399 -0.049137942 5.9062068e-39
2.8004973 -0.5819338 -0.021530131 3.685279e-39
2.672847 -0.4330903 -0.052809805 1.1046849e-38
2.7361171 -0.48341078 -0.048809465 6.0787459e-39
2.5959728 -0.37221202 -0.077430233 2.0549835e-38
2.6343305 -0.35886723 -0.049287416 1.1700151e-38
2.7518771 -0.32502311 -0.055611193 6.9106827e-39
2.8129508 -0.31443855 -0.040687766 3.5927261e-39
2.6922305 -0.20640118 -0.089550376 2.9491896e-39
2.7611871 -0.24730593 -0.049667519 3.2250352e-39
2.8054562 -0.29529306 -0.052032281 3.0402768e-39
2.5990088 -0.10012522 -0.097470321 3.4098132e-39
2.6540003 -0.14210469 -0.055514354 3.594182e-39
2.7156944 -0.18816541 -0.031789597 4.0544329e-39
2.5720572 -0.036286727 -0.056784593 1.0691055e-38
2.6118522 -0.070766926 -0.04118371 5.2529691e-39
2.5763171 0.096805081 -0.096610814 8.7542282e-39
2.6604152 0.049423143 -0.051434752 6.8173941e-39
2.2716022 0.19072682 -0.087767534 2.4889163e-39
2.3443031 0.18205647 -0.079527333 3.0406425e-39
2.4647903 0.16883326 -0.077676289 6.4504249e-39
2.5525458 0.15814406 -0.049761325 6.7252013e-39
2.624867 0.11887334 -0.039792884 6.0801934e-39
2.2581143 0.25351486 -0.075581565 2.1201351e-39
2.3441205 0.25146076 -0.048618849 5.6221131e-39
2.4557631 0.25244299 -0.028700186 9.9527546e-39
2.5212209 0.22269198 -0.016506363 7.0936195e-39
2.2698653 0.34131509 -0.078065358 1.937183e-39
2.3388815 0.35425666 -0.031155571 1.3923673e-38
2.4189851 0.30239299 -0.012437933 1.2350549e-38
2.2967033 0.40189931 -0.097728804 6.6398692e-39
2.3482959 0.4406864 -0.054114621 1.1710256e-38
2.425832 0.48847905 -0.034816515 1.0047121e-38
2.3937938 0.50745589 -0.09021166 2.1194079e-39
2.4602766 0.53663003 -0.066848606 8.7542212e-39
2.5131514 0.56584293 -0.035938337 1.2899761e-38
2.37343 0.66605347 -0.05637477 1.2718268e-38
2.4436884 0.65950155 -0.048774369 9.8583981e-39
2.5186245 0.6305092 -0.049483325 1.2991952e-38
2.2911482 0.79020727 -0.097126015 1.8064881e-38
2.3584771 0.74789906 -0.085423671 7.189792e-39
2.4319677 0.75263941 -0.038009696 1.5665984e-39
2.2725914 0.85502988 -0.090977296 1.8066319e-38
2.3590941 0.85119605 -0.077647775 7.0972488e-39
2.4426837 0.83569217 -0.04828072 4.4246602e-39
2.5282431 0.86979449 -0.01989574 1.7513554e-39
2.2811971 0.94912922 -0.086876906 1.8803165e-38
2.3531985 0.96439844 -0.069027826 8.6649234e-39
2.4483166 0.95110166 -0.06057724 5.5309993e-39
2.5544841 0.95661527 -0.029112574 2.3959948e-39
2.2908618 1.0585618 -0.095125377 1.9446734e-38
2.3429446 1.0393077 -0.049086731 1.2442038e-38
2.4370382 1.0295396 -0.03185844 6.1745512e-39
2.5408382 1.0236495 -0.022060979 4.8823775e-39
2.1897562 1.1725373 -0.086865902 1.4653644e-38
2.2429011 1.1402965 -0.078811646 1.80656e-38
2.3544488 1.1426899 -0.066512071 8.2957794e-39
2.4343219 1.1594591 -0.032600325 4.5164914e-39
2.1816854 1.2516849 -0.080843873 1.4283786e-38
2.2370276 1.2467535 -0.060010966 1.4010806e-38
2.364105 1.2508792 -0.031158747 4.1487935e-39
2.4180417 1.2186159 -0.029266575 1.1985376e-39
2.1824679 1.3543875 -0.073366664 1.3362554e-38
2.2379558 1.3588572 -0.034485281 1.2533148e-38
2.3603511 1.346081 -0.024494831 5.3444318e-39
2.0931971 1.4859593 -0.066582553 8.9371705e-39
2.1541252 1.453845 -0.066209488 1.2716827e-38
2.2527485 1.4505987 -0.027075851 8.0188324e-39
2.0883455 1.5556068 -0.051495504 1.4191951e-38
2.1458659 1.5551348 -0.054003756 9.1222905e-39
2.2454097 1.5532863 -0.020285502 6.9110499e-39
2.3079743 1.5617372 -0.013537492 3.6860091e-39
2.0944445 1.6215488 -0.048054364 1.4467817e-38
2.1327929 1.6506424 -0.045893464 1.0227909e-38
2.2326405 1.6032878 -0.0043108892 1.4380691e-38
2.3171873 1.6084629 -0.0066642892 4.6072409e-39
2.0793424 1.762481 -0.025711784 1.290591e-38
2.1547203 1.7498264 -0.050709914 6.6341001e-39
2.0939891 1.8130622 -0.023511808 1.3826782e-38
2.1591194 1.8451463 -0.05251414 8.0166674e-39
2.2055428 1.8733138 -0.08445102 4.9734983e-39
2.1588156 1.9197267 -0.034699261 9.9531259e-39
2.2205658 1.9504428 -0.080835775 5.1582455e-39
2.2329707 2.0072093 -0.080469862 5.3426368e-39
3.0775468 -2.7204959 0.083065018 1.3371232e-38
2.9749231 -2.6264591 0.023760362 1.4016597e-38
3.0616474 -2.645458 0.069536693 1.3925482e-38
2.9752231 -2.5775921 0.030761607 1.5862665e-38
3.0537798 -2.5475445 0.044194166 1.5953424e-38
3.0572784 -2.448256 0.053211246 1.4293903e-38
3.0425549 -2.3489652 0.046457998 1.5124021e-38
3.0305231 -2.2483041 0.045880906 1.6044901e-38
3.0304005 -2.1473067 0.047937986 1.2542187e-38
3.1333477 -2.1404679 0.093601733 1.7246317e-38
3.0523298 -2.0524073 0.041519895 7.6554561e-39
3.1228867 -2.0617058 0.091089033 1.0514961e-38
2.9819868 -1.916881 0.027693145 1.6413681e-38
3.0301955 -1.9557636 0.056698173 1.2724777e-38
2.9709833 -1.8490479 0.047435492 1.5952704e-38
3.0048592 -1.8922427 0.085567571 1.6136376e-38
2.9704995 -1.7558212 0.046508174 6.4554751e-39
2.968353 -1.658499 0.050675318 5.9934166e-39
2.8833158 -1.5333384 0.047809824 1.4662331e-38
2.9157875 -1.5839881 0.052458152 1.1708095e-38
2.8401377 -1.4437215 0.049994066 1.1157468e-38
2.8555417 -1.361681 0.047019988 1.7426043e-38
2.9498296 -1.3178709 0.049390294 1.3920799e-38
3.0028172 -1.3024343 0.07800594 1.3551651e-38
2.9982657 -1.2978051 0.010112583 1.3367262e-38
3.0225468 -1.2573832 0.04887655 1.2997391e-38
2.7981133 -1.1008319 1.7739549e-05 2.082967e-38
2.8442488 -1.1210964 0.044100158 1.7419875e-38
2.950294 -1.1723166 0.050380569 1.4746929e-38
3.0044749 -1.197189 0.075875036 1.4562543e-38
2.774539 -1.0513629 0.045983512 1.5668158e-38
2.8045771 -1.0149446 0.052973233 7.0007036e-39
2.790844 -0.93189281 0.060647957 6.1713142e-39
2.8053818 -0.97198433 0.035850383 5.7106948e-39
2.7563527 -0.84802079 0.049050305 5.8958133e-39
2.6945806 -0.71164978 0.040913019 1.6038741e-38
2.7355578 -0.76354933 0.053842019 7.0939894e-39
2.6910689 -0.68994778 0.025328433 1.0322252e-38
2.7667193 -0.65154517 0.050970312 4.9745703e-39
2.7750962 -0.55057681 0.049121127 4.052621e-39
2.6790686 -0.41458225 0.042204164 6.1687933e-39
2.7261989 -0.46189132 0.05211544 4.7883854e-39
2.6433442 -0.36840305 0.047749847 1.1887791e-38
2.7663796 -0.32668605 0.051554624 4.2373738e-39
2.803067 -0.32096434 0.0042841849 3.5927261e-39
2.7611694 -0.25079349 0.050221011 3.1324738e-39
2.6629179 -0.13781519 0.050543867 3.4094222e-39
2.7138391 -0.18914394 0.043884959 3.3168651e-39
2.5800045 -0.034346394 0.049039356 1.1520808e-38
2.6185639 -0.064922854 0.048515663 4.6997925e-39
2.6607883 0.049126171 0.049830291 5.7110507e-39
2.5789731 0.17448701 0.046087086 6.2631427e-39
2.6285727 0.12636602 0.052165251 5.8025261e-39
2.4785762 0.28560102 0.0073222783 1.2625698e-38
2.542608 0.24822903 0.051880363 6.3560572e-39
2.3562753 0.35306609 0.04871963 1.7334545e-38
2.4467552 0.30582193 0.052326545 1.3182125e-38
2.507005 0.30246583 0.063066579 4.6990568e-39
2.3488972 0.43350255 0.049556836 8.1131888e-39
2.4317665 0.4871909 0.047183014 1.2165088e-38
2.4887943 0.54502589 0.065465629 1.3729882e-38
2.5069556 0.56416678 0.023014011 1.3636603e-38
2.3823299 0.66184044 0.054099254 1.3546586e-38
2.4622953 0.64820451 0.062359735 1.216256e-38
2.5133007 0.62977761 0.033255741 1.3728797e-38
2.3914993 0.71428293 0.088383742 4.052984e-39
2.437505 0.75182688 0.045370519 3.3157833e-39
2.4810078 0.81996375 0.064575076 3.8685927e-39
2.5356209 0.86538929 0.043711036 2.9473665e-39
2.5723968 0.95119494 0.054004058 3.9611485e-39
2.6109147 0.97251433 0.034538295 2.4867457e-39
2.3592551 1.0437412 0.051013455 8.4779986e-39
2.4436295 1.0217741 0.049839295 7.462402e-39
2.5557301 1.0264215 0.049548119 5.0664044e-39
2.3787775 1.1467936 0.06759534 2.211242e-39
2.4220254 1.1628021 0.018589107 2.7651374e-39
2.3917363 1.2464236 0.038732219 3.0413656e-39
2.4110701 1.2489314 0.051831093 2.8562526e-39
2.2558129 1.379509 0.048777595 1.0781079e-38
2.3495514 1.3606018 0.041226674 8.3854303e-39
2.4218538 1.3451115 0.064638883 3.2243065e-39
2.2684102 1.4495305 0.048723623 4.6976289e-39
2.2885671 1.5179741 0.03774032 4.3295694e-39
2.3206623 1.5541 0.048463449 4.5136006e-39
2.1585855 1.6554632 0.041762624 9.8609177e-39
2.2328281 1.6433021 0.050594471 7.8326292e-39
2.356344 1.6559932 0.051028166 4.2373724e-39
2.0994983 1.7773283 1.3310453e-05 6.0859864e-39
2.1604645 1.7542653 0.045033727 7.1897948e-39
2.350441 1.7040125 0.06987565 4.4217553e-39
2.1711113 1.8347201 0.042468593 5.5317308e-39
2.2082539 1.8628126 0.075504616 3.6874595e-39
2.184634 1.9290873 0.0082448423 4.4239441e-39
2.2300067 1.9514799 0.055283073 2.0286612e-39
2.2554812 2.017215 0.062267557 2.0286598e-39
2.3164818 2.069067 0.093592435 7.2837995e-39
2.3330007 2.1012144 0.095938377 1.069395e-38
3.1599565 -2.8075399 0.1595785 1.1248577e-38
3.0851836 -2.723146 0.13064176 1.3371232e-38
3.1246383 -2.7478447 0.1584308 1.613746e-38
2.9645803 -2.6246996 0.19215082 1.1986864e-38
3.0735407 -2.6522727 0.14954454 1.5216222e-38
3.1131647 -2.6533818 0.15145259 1.3372311e-38
2.8591752 -2.5355189 0.19263391 1.1156743e-38
2.930079 -2.5878549 0.19658005 1.2263091e-38
3.0685525 -2.5439024 0.15440819 1.6321849e-38
2.7675805 -2.4574983 0.19564974 1.1156743e-38
2.8169312 -2.4940188 0.19508415 1.1064548e-38
3.084795 -2.4659617 0.14033143 1.3832567e-38
3.1016557 -2.4398189 0.16455102 1.1526595e-38
3.0901735 -2.3489516 0.13816692 1.2541823e-38
3.1024356 -2.363827 0.18506324 1.1711344e-38
3.0479133 -2.2395022 0.14979649 1.5951987e-38
3.1752548 -2.204392 0.18486066 1.3555978e-38
3.2490253 -2.206785 0.18838075 1.4109149e-38
3.3415029 -2.2211967 0.18991238 1.3463779e-38
3.402565 -2.2443004 0.19637167 1.1988649e-38
3.0503383 -2.1729462 0.14591968 1.5215143e-38
3.1649642 -2.1764059 0.1338975 1.5492803e-38
3.2413604 -2.1581056 0.14797629 1.5861224e-38
3.3200705 -2.1829407 0.17978418 1.5215496e-38
3.1611803 -2.0448673 0.14603208 1.8903682e-38
3.2134225 -2.088088 0.15798709 1.9456497e-38
3.0526063 -1.9396542 0.14798073 1.7059053e-38
3.1073303 -1.9935284 0.17119828 1.7151606e-38
2.9953032 -1.832175 0.12788749 1.4845998e-38
3.0114763 -1.847965 0.16287668 1.3924039e-38
2.9757984 -1.7407562 0.13269654 1.3832559e-38
3.0165491 -1.7649333 0.17866382 9.6830284e-39
2.9513938 -1.6486717 0.14784724 1.2726572e-38
2.8926938 -1.5241115 0.14090651 1.4754532e-38
2.916147 -1.5682371 0.15699007 1.4016962e-38
2.8659599 -1.4449995 0.15094253 1.1802837e-38
2.8722672 -1.3681306 0.14774901 1.7886663e-38
2.9509821 -1.3312744 0.14923571 1.4197389e-38
3.0130427 -1.3096629 0.16052845 1.3735684e-38
3.0396924 -1.2570869 0.14916259 1.3181422e-38
2.8474116 -1.1133612 0.15506749 1.8341467e-38
2.9543862 -1.1641513 0.14753228 1.4746206e-38
3.01284 -1.1932375 0.15061454 1.4286674e-38
2.7897933 -1.05163 0.13299333 1.788193e-38
2.8295126 -1.0404669 0.16026767 1.373313e-38
2.7910819 -0.93934172 0.11959607 1.2168701e-38
2.8335731 -0.95863038 0.1635724 5.1672404e-39
2.7617369 -0.84838551 0.14975341 7.5621716e-39
2.699307 -0.70953572 0.10126602 1.5302615e-38
2.726733 -0.74802703 0.15069701 1.1793439e-38
2.7450268 -0.65217441 0.14832386 8.8467826e-39
2.7420151 -0.55012143 0.15022798 1.4934226e-38
2.6855788 -0.4148581 0.15085289 8.57056e-39
2.7242725 -0.46405399 0.1490972 1.1337511e-38
2.6609814 -0.35713264 0.15173146 1.290302e-38
2.7405214 -0.3231948 0.137393 5.6192223e-39
2.6737313 -0.24570115 0.16209106 1.0599936e-38
2.7323778 -0.25436795 0.13181919 4.2380955e-39
2.5987582 -0.10199054 0.1724761 1.3276131e-38
2.6397989 -0.14832079 0.15013023 7.1890731e-39
2.7060754 -0.19365427 0.11068984 3.6852846e-39
2.5855031 -0.038916253 0.1523809 1.2534957e-38
2.610405 -0.069697984 0.142684 6.542982e-39
2.5693505 0.053672589 0.17560184 1.2625e-38
2.6222224 0.047176275 0.12756909 6.0787473e-39
2.5570419 0.15419708 0.15400434 8.2910822e-39
2.6088872 0.11576714 0.11528849 5.9861915e-39
2.4784458 0.27411008 0.18098672 7.9233829e-39
2.5276639 0.24552549 0.14233138 6.8163123e-39
2.3525636 0.35765648 0.14910603 1.3370499e-38
2.4294279 0.30811474 0.1509763 1.4750901e-38
2.5025356 0.30072591 0.11193161 3.2235792e-39
2.1890445 0.48533863 0.18761219 2.0006795e-38
2.2535162 0.45253116 0.16901264 1.0050016e-38
2.3272021 0.43045709 0.13386527 6.0838087e-39
2.4260654 0.49042732 0.11387799 1.336255e-38
2.1647429 0.56011766 0.17648095 1.1155289e-38
2.2406802 0.53896147 0.15554586 7.1897878e-39
2.3516412 0.54615599 0.14335331 1.3178155e-38
2.4654424 0.5543533 0.12112182 1.4374174e-38
2.1538777 0.61866182 0.17195344 4.6086843e-39
2.2477162 0.64758313 0.15342017 4.5157684e-39
2.3506086 0.66100961 0.12536488 9.1233737e-39
2.4635649 0.62213409 0.12100364 1.4098306e-38
2.2860541 0.70768601 0.1919878 5.343357e-39
2.3671212 0.74252534 0.15529801 4.5132362e-39
2.4135597 0.78008837 0.12528791 4.3288436e-39
2.3922751 0.80614674 0.19253524 5.4333891e-39
2.4565094 0.84900403 0.15269576 4.7883798e-39
2.5062833 0.8890776 0.11364225 4.6969044e-39
2.4884405 0.94500858 0.1823929 4.7883784e-39
2.5192919 0.95486808 0.13525011 4.5125132e-39
2.3489313 1.0444305 0.15065651 7.0025126e-39
2.4615779 1.016781 0.15944672 5.3426256e-39
2.5207148 1.0165836 0.125677 4.4203161e-39
2.3668733 1.1484185 0.15050192 2.9469993e-39
2.3936327 1.2149388 0.15819283 2.9466406e-39
2.4127622 1.2641172 0.14717487 3.1306731e-39
2.2532351 1.3747069 0.15241025 8.6613039e-39
2.3430405 1.3642192 0.15096821 8.293236e-39
2.4228387 1.3401499 0.14690641 3.2232261e-39
2.264266 1.4494169 0.15101612 4.144095e-39
2.2931414 1.5141145 0.16613145 3.9600639e-39
2.3206699 1.5586445 0.14624153 4.1448152e-39
2.1902804 1.6804848 0.14203703 1.1519706e-38
2.2392526 1.6682284 0.15905398 7.3720014e-39
2.348717 1.6601533 0.15154916 4.0529784e-39
2.1742404 1.7350734 0.15604472 7.0032343e-39
2.2046072 1.7891103 0.12934893 3.9618715e-39
2.3418186 1.7036778 0.11883536 4.3302785e-39
2.1939816 1.8255852 0.16515256 3.9625974e-39
2.2136853 1.8507438 0.1425823 3.9629561e-39
2.2587404 1.9483552 0.15006925 4.0551546e-39
2.3002119 1.9986777 0.14602546 3.3168651e-39
2.29409 2.0114903 0.15720895 4.054793e-39
2.3221679 2.0595155 0.15013731 3.9622345e-39
2.3448598 2.1082525 0.1501368 3.7771201e-39
2.982336 -2.6085007 0.20881109 1.5030393e-38
3.0237908 -2.6160572 0.20862703 1.6505882e-38
2.8764613 -2.5165055 0.25106558 1.4567258e-38
2.9584255 -2.5664439 0.24911742 1.5028954e-38
3.0513535 -2.5472097 0.25042325 1.6597e-38
2.7584391 -2.4323468 0.24019347 1.2723347e-38
2.8294294 -2.4781456 0.26070148 1.5488496e-38
3.0893767 -2.4841022 0.24609371 1.5768317e-38
3.1076317 -2.4390934 0.25061953 1.1895738e-38
3.6656017 -2.4054534 0.26972443 1.0513162e-38
2.5950892 -2.3058431 0.24935377 1.2077263e-38
2.6564405 -2.3492975 0.24903828 1.1800315e-38
2.7126253 -2.3885186 0.25777081 1.2353489e-38
3.097698 -2.3053896 0.21006197 1.1618433e-38
3.1147435 -2.3564661 0.2503885 1.1895019e-38
3.3927178 -2.3026564 0.25575623 1.1066697e-38
3.4596355 -2.3213067 0.26402265 1.0329131e-38
3.5405169 -2.3402364 0.25844407 1.0236575e-38
3.6303861 -2.3787904 0.27443451 1.0420606e-38
2.4911563 -2.2091787 0.27746451 1.2261296e-38
2.5525844 -2.2554173 0.27385879 1.2260214e-38
2.6122632 -2.2909381 0.28569481 1.151941e-38
3.0739391 -2.241801 0.2489621 1.6689194e-38
3.1628382 -2.2247791 0.24445859 1.1988296e-38
3.251529 -2.2397764 0.24420236 1.226524e-38
3.3423448 -2.2703714 0.25867799 1.1527675e-38
3.4397163 -2.2622688 0.23261343 1.2633661e-38
3.5165355 -2.2833216 0.27082354 1.1803182e-38
2.3859475 -2.1151092 0.29411328 1.2630077e-38
2.4439859 -2.1584208 0.28790271 1.2445324e-38
2.5019004 -2.1898351 0.29959589 1.20733e-38
3.0672846 -2.1779335 0.24791306 1.613746e-38
3.1198468 -2.1870327 0.25549397 1.0513528e-38
3.2721944 -2.1158123 0.234925 1.5491367e-38
3.3407457 -2.1612349 0.25248641 1.3739291e-38
3.4033091 -2.1932373 0.29461116 9.959272e-39
2.3643525 -2.0932984 0.29846787 1.2538241e-38
3.1624475 -2.0288038 0.23609003 1.6044541e-38
3.2217598 -2.0746362 0.24421276 1.4845998e-38
3.0579569 -1.9334017 0.25037175 1.798029e-38
3.1176519 -1.9915322 0.24593556 1.6781747e-38
3.0178735 -1.8445575 0.25024387 1.4477577e-38
3.0173504 -1.7512702 0.25051945 8.668522e-39
2.9830616 -1.635497 0.2368446 1.1158173e-38
3.0064936 -1.670112 0.26561505 8.8532762e-39
2.8988822 -1.5071079 0.20668517 1.3924773e-38
2.9148862 -1.5399883 0.25050396 1.4662692e-38
2.888618 -1.4442977 0.24793309 1.1895033e-38
2.9025683 -1.4790674 0.27510664 1.4385395e-38
2.8888774 -1.3756757 0.24543548 1.8716785e-38
2.9535413 -1.352795 0.24643071 1.4382863e-38
3.0261958 -1.326462 0.25669631 1.3828605e-38
3.0581894 -1.2578301 0.24949983 1.3366898e-38
2.8651586 -1.1137321 0.24966566 1.8987555e-38
2.9447832 -1.1546534 0.25104347 1.5023876e-38
3.0186439 -1.1903501 0.24748717 1.4656179e-38
2.7923131 -1.0534062 0.22034338 1.6683389e-38
2.8535316 -1.0452663 0.25130916 1.31796e-38
2.8549242 -0.95071995 0.25083452 5.8979699e-39
2.7846618 -0.83708096 0.24172339 3.8729213e-39
2.8112783 -0.8779853 0.2662172 5.0696638e-39
2.7460036 -0.74378163 0.2505247 8.7556715e-39
2.7784965 -0.65384108 0.24481367 8.478007e-39
2.8043244 -0.65164804 0.28370231 5.9880104e-39
2.7519181 -0.54956919 0.24928041 1.5581778e-38
2.692471 -0.40843171 0.23966537 3.6852916e-39
2.7247436 -0.45910534 0.25200969 7.649345e-39
2.6728528 -0.37632608 0.24845369 1.3641664e-38
2.7476785 -0.3407318 0.24888112 9.6772523e-39
2.8215017 -0.31256804 0.25827539 6.911396e-39
2.6899607 -0.20521286 0.21392432 4.8006482e-39
2.7455277 -0.22692798 0.24949905 4.0703012e-39
2.8230891 -0.27475405 0.25521854 4.7005142e-39
2.6748936 -0.14771113 0.24913718 2.8793418e-39
2.7022588 -0.19558741 0.27083358 2.9819926e-39
2.5914242 -0.026151476 0.21484809 1.8526233e-38
2.6338499 -0.053323902 0.2545242 7.4685453e-39
2.5718343 0.053702105 0.21010904 1.732666e-38
2.6680336 0.048877794 0.25972816 6.9146554e-39
2.7036159 0.047921181 0.27367857 3.8725584e-39
2.5553818 0.1566084 0.22232112 1.5300507e-38
2.6313984 0.14324918 0.27140376 1.0144749e-38
2.4679236 0.27707055 0.2159033 8.2961451e-39
2.5455496 0.25427109 0.24060124 9.4939681e-39
2.6196675 0.24225979 0.27565318 6.0838102e-39
2.3692625 0.36414659 0.21529229 6.6398748e-39
2.4418206 0.33586419 0.24105385 1.4565071e-38
2.5311904 0.34318221 0.28209752 1.6496834e-38
2.1896353 0.48824218 0.21587916 2.3233281e-38
2.2476606 0.4537414 0.21679336 2.1390793e-38
2.347312 0.42978731 0.22604913 1.5675383e-38
2.4232631 0.42346004 0.24456853 1.8531997e-38
2.5662105 0.43608043 0.27230757 1.363842e-38
2.6305597 0.45223388 0.29005489 1.4282701e-38
2.1768565 0.55198908 0.21720016 2.221913e-38
2.2211707 0.56120658 0.24144629 2.3232559e-38
2.3359962 0.58209574 0.26583728 1.8896096e-38
2.4270346 0.5842796 0.27663383 1.2440595e-38
2.559263 0.57341778 0.29328749 1.4651482e-38
2.6404898 0.52741694 0.29466981 1.4651488e-38
2.1686962 0.63495386 0.21409094 8.3897799e-39
2.2376409 0.65587091 0.23626617 1.1522985e-38
2.3599679 0.66081196 0.27858254 1.1612653e-38
2.4309955 0.62033254 0.29186657 1.5758551e-38
2.529222 0.61349207 0.29613239 1.4375613e-38
2.2722068 0.7327792 0.22603525 1.059886e-38
2.3477299 0.75912732 0.24678387 7.834081e-39
2.4087055 0.76405329 0.28940693 7.0057679e-39
2.3637328 0.84296751 0.23990564 9.9527714e-39
2.4228249 0.85746539 0.25692728 5.1589714e-39
2.3880024 0.95416391 0.25676039 1.3455823e-38
2.4449625 0.95574391 0.2397548 5.8950819e-39
2.5074596 0.96579123 0.29664269 3.1321151e-39
2.3494081 1.0458373 0.2465163 9.8605702e-39
2.4370251 1.0156822 0.23254094 5.4348226e-39
2.2749014 1.1767361 0.27730435 1.3547312e-38
2.3434601 1.1467499 0.24703474 6.4489829e-39
2.2670672 1.2409748 0.28163922 1.0873282e-38
2.3663538 1.2497363 0.23885214 4.4199602e-39
2.4023995 1.2834809 0.20666429 3.038116e-39
2.1857119 1.3724769 0.28577653 1.3179965e-38
2.246248 1.3596691 0.25252223 9.3981473e-39
2.3487968 1.3386247 0.23837398 5.1571595e-39
2.4039876 1.322764 0.20805213 2.9462763e-39
2.1873367 1.4288139 0.2828548 7.6475163e-39
2.2368159 1.4510345 0.24527569 5.1578812e-39
2.1819804 1.5642259 0.29302886 7.0010651e-39
2.2595861 1.5483133 0.25660291 4.880574e-39
2.309015 1.5818775 0.21255955 3.5912813e-39
2.1710656 1.6780844 0.25942028 8.0170135e-39
2.2469611 1.6425622 0.24388406 4.7890987e-39
2.3150692 1.6317376 0.21281226 3.5912813e-39
2.0950897 1.7363399 0.29712325 4.7909063e-39
2.145694 1.7479092 0.25118959 4.1458985e-39
2.1744237 1.835904 0.25170329 3.4079761e-39
2.2097368 1.8834506 0.23145084 2.8551666e-39
2.196548 1.9078984 0.2933085 3.9611471e-39
2.2476411 1.9518952 0.24939618 3.0395551e-39
2.2881105 2.0236616 0.25554556 3.1317521e-39
2.3124979 2.0690098 0.24045053 3.3165035e-39
3.0415657 -2.6071451 0.32092702 1.8254002e-38
2.891335 -2.5082638 0.32748702 1.2622876e-38
2.9566033 -2.5282674 0.36034784 1.0129995e-38
3.0641301 -2.5558693 0.33302271 1.6131343e-38
3.1353819 -2.5338216 0.36960676 2.1020951e-38
2.7813935 -2.4146051 0.35338664 1.0130357e-38
2.8512158 -2.4681952 0.36025351 1.0406943e-38
2.9702513 -2.4950867 0.37634677 8.3789983e-39
3.0970166 -2.4962587 0.30495769 1.7334565e-38
3.1546535 -2.4540207 0.34671283 1.7795543e-38
2.6654131 -2.3217547 0.32587168 1.0502017e-38
2.7290082 -2.3736453 0.3386392 1.0223993e-38
3.1449347 -2.3543589 0.34504023 1.5858356e-38
3.4581087 -2.307554 0.32989654 9.4982939e-39
3.5335529 -2.3172686 0.31653309 8.6681745e-39
3.6007509 -2.3490479 0.30131358 8.4841419e-39
2.5589774 -2.2328153 0.3230052 1.1059148e-38
2.6277261 -2.2882104 0.33931303 1.0503458e-38
3.084538 -2.2345071 0.3483654 1.7703349e-38
3.1225033 -2.2709029 0.35162041 1.6228219e-38
3.2624757 -2.2491565 0.33248663 9.5915699e-39
3.3488638 -2.2721496 0.33745417 1.0236219e-38
3.4441383 -2.2614322 0.3501364 9.6830453e-39
3.5123436 -2.288837 0.33527642 8.7603701e-39
2.3812809 -2.1025131 0.33544609 1.2630437e-38
2.4349604 -2.1282525 0.33352476 1.2444962e-38
2.5074065 -2.1886251 0.32798719 1.1337535e-38
3.0762241 -2.1558888 0.35654318 1.7611512e-38
3.1398337 -2.1550391 0.34172842 1.1804625e-38
3.2450304 -2.1329043 0.35637075 9.9607125e-39
3.342469 -2.1653533 0.34766895 1.0051828e-38
2.2774696 -2.0145977 0.38133785 1.3185414e-38
2.3492086 -2.0702715 0.34657821 1.2722994e-38
2.4005573 -2.0976691 0.36711377 1.2722272e-38
3.0719659 -2.0517886 0.37727225 1.7704785e-38
3.1451752 -2.0484612 0.35123333 1.3187199e-38
3.2301278 -2.0796893 0.34112892 1.0051828e-38
2.2438352 -1.9900596 0.39254743 1.3001023e-38
3.0400391 -1.9419667 0.36158279 1.7704424e-38
3.1121266 -1.9889101 0.32999924 1.3370509e-38
2.9926672 -1.8148607 0.3569763 1.724381e-38
3.0094433 -1.8604287 0.34594724 1.7059056e-38
2.9744747 -1.7489455 0.36053416 1.3555266e-38
3.0068588 -1.7527275 0.31353718 9.2220601e-39
2.898777 -1.6004502 0.39730427 1.7981016e-38
2.9605355 -1.6502882 0.35133296 1.2541113e-38
3.0007737 -1.6928401 0.30834711 9.3138956e-39
2.8957024 -1.5410783 0.38747999 1.1527328e-38
2.9179573 -1.5474445 0.34525993 1.4569781e-38
2.8983588 -1.4617182 0.31816888 1.0143317e-38
2.9091656 -1.4492542 0.35532162 1.2079062e-38
2.899061 -1.390592 0.30443528 1.9823495e-38
2.9319201 -1.3768116 0.34674037 1.7979939e-38
3.0513999 -1.3469249 0.35198334 1.4014082e-38
3.0797954 -1.259752 0.34570524 1.3736766e-38
3.1036577 -1.2486244 0.39303416 1.3553102e-38
2.8811882 -1.1085701 0.35289094 2.1110591e-38
2.9517448 -1.1490915 0.34932905 1.6132037e-38
3.0270772 -1.1874849 0.35439783 1.4749468e-38
2.8796699 -1.0513045 0.34891963 1.2258374e-38
2.9019275 -1.013765 0.33714032 7.9251878e-39
2.8575363 -0.94826376 0.3506397 4.4217651e-39
2.7928622 -0.81711155 0.34415177 4.237378e-39
2.8145349 -0.86552376 0.35319301 4.2373766e-39
2.7679257 -0.74449283 0.35002977 8.4787245e-39
2.8009613 -0.70190907 0.39400005 9.4910772e-39
2.7921336 -0.66087312 0.32372791 8.7538737e-39
2.8126101 -0.65141147 0.35632813 5.2518887e-39
2.7704251 -0.54832542 0.34990191 8.0177702e-39
2.8010387 -0.59686363 0.38188735 3.5019836e-39
2.698323 -0.40369448 0.30754697 3.7792851e-39
2.7325504 -0.45014641 0.35083342 4.0540742e-39
2.6894889 -0.38207531 0.33645424 1.5670333e-38
2.7479324 -0.35447797 0.35785753 8.8482217e-39
2.8235931 -0.31761259 0.34710222 5.3451577e-39
2.7422273 -0.22361062 0.35394168 3.713064e-39
2.8269958 -0.27427891 0.34858683 3.5041416e-39
2.6892853 -0.13288674 0.33734268 2.7032491e-39
2.7076976 -0.1721001 0.36509541 3.7242505e-39
2.6527472 -0.050306633 0.35017759 7.7469342e-39
2.6899145 0.05329949 0.35662866 4.055872e-39
2.7029381 0.033603881 0.3287386 4.6094017e-39
2.6833887 0.14815292 0.35279503 4.7952419e-39
2.7011991 0.18898709 0.34736219 3.4108656e-39
2.5802593 0.29676065 0.34032032 4.9749318e-39
2.6676946 0.25166938 0.35239053 4.7923525e-39
2.7019053 0.20685865 0.34445259 3.9640365e-39
2.4984679 0.33267707 0.30459225 2.1567949e-38
2.5487797 0.33904487 0.34876472 1.7050369e-38
2.6138783 0.3929646 0.36430612 1.3821723e-38
2.6564918 0.44342411 0.3416549 1.4559288e-38
2.7202151 0.47959763 0.38028783 1.5665635e-38
2.574295 0.58322936 0.32351509 1.5111739e-38
2.6520317 0.55905372 0.3451933 1.5481243e-38
2.7256148 0.53067845 0.36968529 1.5942222e-38
2.3949819 0.65979713 0.30918401 1.4284877e-38
2.4410899 0.65276909 0.3507385 1.5205746e-38
2.5537004 0.61780113 0.35224801 1.4927346e-38
2.6112325 0.60607141 0.39094818 1.5941495e-38
2.397027 0.70474911 0.30086997 5.9908943e-39
2.4645607 0.75006717 0.35314232 4.7005254e-39
2.4701419 0.83271205 0.34762892 6.3593138e-39
2.5185399 0.88600135 0.36473379 5.2518817e-39
2.4581068 0.99552661 0.33941641 8.5701789e-39
2.5291433 0.95084119 0.35046709 4.5143194e-39
2.3965108 1.0148789 0.31696612 1.8066682e-38
2.4391668 1.0391431 0.35300109 9.3999549e-39
2.5186894 1.0218612 0.36111155 5.6206586e-39
2.2939186 1.1939931 0.30447504 4.4203414e-39
2.3462698 1.1895543 0.30857924 4.5132559e-39
2.475136 1.1640089 0.3382265 2.4881932e-39
2.5078897 1.1394478 0.37503421 2.7633367e-39
2.2835391 1.2442619 0.30796292 3.4079915e-39
2.3558261 1.2593752 0.34395799 1.5394854e-38
2.4640079 1.2364032 0.36819723 5.1604161e-39
2.5006275 1.2023869 0.39504406 4.6061605e-39
2.2852321 1.3609556 0.32786515 1.0780719e-38
2.3283982 1.34075 0.36244756 1.0873636e-38
2.4394383 1.3049722 0.39685673 7.004686e-39
2.2595239 1.4535649 0.31282547 1.0228986e-38
2.3311348 1.4466925 0.36309361 5.8036093e-39
2.1910996 1.5785921 0.30688089 1.4746199e-38
2.240303 1.5523077 0.31492504 1.3640214e-38
2.3697889 1.5379204 0.36287892 6.1720317e-39
2.4080827 1.5846804 0.37505275 6.0805563e-39
2.1796417 1.6737148 0.31980878 1.2442753e-38
2.2429111 1.6574466 0.3618601 1.1795214e-38
2.3407848 1.6352369 0.36968827 8.2917983e-39
2.4219921 1.6361679 0.3779107 6.0801948e-39
2.0900953 1.7474566 0.3124055 9.6783369e-39
2.143775 1.7340459 0.32531807 8.5719991e-39
2.2334237 1.7564466 0.37269923 4.238457e-39
2.150455 1.8519683 0.32875776 7.2805415e-39
2.2626743 1.8541729 0.37745264 3.2253939e-39
2.1871295 1.9205461 0.33360326 7.8329936e-39
2.2387588 1.9535611 0.36344904 5.4369974e-39
2.2581596 2.0223494 0.34500742 5.1604105e-39
2.3032532 2.0727611 0.30405176 3.5920086e-39
2.9383821 -2.5075612 0.43987706 7.9205453e-39
3.0576546 -2.5306516 0.43531367 1.3083851e-38
3.1621537 -2.5426533 0.45035169 2.102203e-38
2.7936268 -2.4169619 0.43528342 1.0594574e-38
2.8618283 -2.4676168 0.43626815 9.579345e-39
2.9444194 -2.4768069 0.45620611 6.6319673e-39
3.0126755 -2.4931021 0.46581778 6.5397731e-39
3.1951685 -2.4571619 0.44740468 2.0561775e-38
3.2011354 -2.4517274 0.45539424 2.1207505e-38
2.7602923 -2.3921041 0.4261097 9.9528036e-39
3.1592677 -2.351716 0.45187834 1.5398825e-38
3.0888882 -2.2306852 0.42830563 2.1023113e-38
3.1205144 -2.263737 0.4679141 1.669102e-38
3.080328 -2.1467721 0.44713795 2.0194077e-38
3.1020079 -2.1932888 0.48512465 1.7982121e-38
2.2864356 -2.0039821 0.40133485 1.2909546e-38
3.0600801 -2.0518754 0.4538264 1.9549425e-38
2.172477 -1.919932 0.43857417 1.3646392e-38
2.2339318 -1.9613574 0.42581102 1.3554555e-38
2.9781764 -1.9246613 0.46975416 1.8075025e-38
3.0228884 -1.9585761 0.43871126 2.0194433e-38
2.0767024 -1.8187194 0.46632645 1.4014816e-38
2.1269722 -1.8482229 0.46531251 1.3738588e-38
2.7929454 -1.8039222 0.49964809 1.4847126e-38
2.8758881 -1.843173 0.48780519 1.4848558e-38
2.9529653 -1.8481207 0.44486099 1.9825655e-38
3.0058904 -1.8766334 0.40454838 1.7981374e-38
1.9677721 -1.7318964 0.48827058 1.4752381e-38
2.0412714 -1.7743714 0.48013106 1.4383599e-38
2.1115165 -1.7937381 0.49305242 1.3369805e-38
2.6602473 -1.7197911 0.49011618 1.1160719e-38
2.7539537 -1.7386501 0.48186952 1.5676505e-38
2.8525062 -1.7555174 0.47021356 1.8719311e-38
2.935257 -1.756049 0.43055344 1.9457231e-38
1.9445531 -1.692958 0.4958806 1.5582502e-38
2.4653726 -1.6380154 0.49178827 8.0228177e-39
2.5616393 -1.6252133 0.48401675 8.7600226e-39
2.6466238 -1.625324 0.47466594 9.3135565e-39
2.7484744 -1.6432092 0.46900195 9.9596462e-39
2.8606143 -1.6448092 0.4526369 1.0604655e-38
2.9345288 -1.6394172 0.45383763 1.0880882e-38
3.0447586 -1.610638 0.49451137 1.069649e-38
2.8894951 -1.5803521 0.40925917 9.4986652e-39
2.9339671 -1.5502181 0.43974152 8.9440523e-39
3.028054 -1.5358225 0.4840318 1.7425689e-38
2.9542677 -1.4495271 0.42836776 1.7241659e-38
3.010736 -1.4520943 0.47781375 2.3142179e-38
2.9779141 -1.3859903 0.43862957 1.7979583e-38
3.0727408 -1.3710337 0.43895254 1.4015165e-38
3.1153567 -1.3371582 0.4694944 1.3830415e-38
3.09182 -1.243186 0.42091084 1.4014799e-38
3.1338015 -1.2650021 0.45037913 1.3646021e-38
2.8966174 -1.1031702 0.40775678 2.2679719e-38
2.9333858 -1.1224897 0.45020381 2.0651782e-38
3.0371189 -1.1799744 0.45010975 1.5121144e-38
2.8860967 -1.042294 0.43595433 1.2260182e-38
2.9159176 -1.0693172 0.48026058 2.2496052e-38
2.8537757 -0.94853342 0.44895568 1.2076149e-38
2.7967501 -0.807105 0.40887561 5.5277455e-39
2.821779 -0.85123038 0.45194745 1.2167985e-38
