# .PCD v0.7 - Point Cloud Data file format
VERSION 0.7
FIELDS x y z rgb
SIZE 4 4 4 4
TYPE F F F F
COUNT 1 1 1 1
WIDTH 1021
HEIGHT 1
VIEWPOINT 0 0 0 1 0 0 0
POINTS 1021
DATA ascii
1.6925033 -0.31400737 -0.81632268 3.9586331e-39
1.7228692 -0.36471584 -0.82493579 5.3422766e-39
1.6642671 -0.27582377 -0.8096329 3.867878e-39
2.0984251 -1.4007517 -0.73713911 8.4794476e-39
2.1347325 -1.4150695 -0.78248316 7.9269941e-39
2.2740047 -1.4071045 -0.70226461 5.6249956e-39
1.9749897 -1.3101996 -0.76830298 3.687835e-39
2.0636613 -1.3414459 -0.75329506 6.0845416e-39
2.1523321 -1.3429403 -0.76013565 7.374549e-39
2.2139866 -1.3310328 -0.78666162 6.5444268e-39
1.7862868 -1.2233061 -0.79459178 3.6885469e-39
1.8484982 -1.24073 -0.78955448 2.951349e-39
1.9364041 -1.2880007 -0.7800808 3.5045255e-39
2.1756294 -1.2445028 -0.74597889 1.0048218e-38
2.2098205 -1.2715539 -0.78541327 8.8489532e-39
1.8589931 -1.1831479 -0.79359496 1.1070804e-39
1.9061265 -1.1828077 -0.79849988 9.2376958e-40
2.1519458 -1.1526618 -0.75549567 8.0202813e-39
2.0894184 -1.0225035 -0.74417341 1.244494e-38
2.1211891 -1.0718991 -0.75227809 1.0047858e-38
2.0391018 -0.94500059 -0.7466222 7.3745462e-39
1.9813607 -0.83677828 -0.75461692 7.4667474e-39
2.0087044 -0.88759464 -0.7458632 4.9767493e-39
1.896114 -0.70431858 -0.72101492 1.105586e-38
1.9356989 -0.75355458 -0.75606024 1.1060199e-38
1.8867493 -0.65130275 -0.74930769 6.8155934e-39
1.9019547 -0.69688123 -0.79421711 1.336435e-38
1.7932023 -0.50701272 -0.72816032 7.6413884e-39
1.8423235 -0.55750293 -0.75173372 3.2207024e-39
1.7653339 -0.45026192 -0.74749672 1.0225383e-38
1.8026197 -0.49788958 -0.79641426 7.17969e-39
1.6869973 -0.32638937 -0.74319774 1.2996659e-38
1.7126697 -0.37444383 -0.7522316 1.2258373e-38
1.640754 -0.24802782 -0.74926859 1.2166184e-38
1.5822101 -0.13125387 -0.73756558 1.4932396e-38
1.6080804 -0.17872052 -0.74905598 1.2627158e-38
1.4891579 -0.027725905 -0.71742076 1.5116787e-38
1.5197294 -0.076790772 -0.72225523 1.5669601e-38
1.4702843 0.033240374 -0.71267539 1.3642022e-38
1.4587117 0.88373959 -0.70926863 9.1943116e-40
1.478942 0.94963062 -0.713943 2.7586522e-40
1.5310338 0.97346723 -0.70214027 4.5164858e-39
1.4795302 1.0527985 -0.7128951 3.6805945e-40
1.5298783 1.0548215 -0.70476449 4.9778213e-39
1.4675788 1.1413348 -0.70859641 7.3684057e-40
1.534842 1.142604 -0.70846194 5.8997762e-39
1.468887 1.2482536 -0.71434176 6.4464634e-40
2.1830745 -1.4141071 -0.6777972 8.6663696e-39
2.2639701 -1.4331515 -0.67613149 5.4391694e-39
2.0726817 -1.3421513 -0.68890619 9.1276981e-39
2.1578188 -1.3367484 -0.66736239 1.124676e-38
2.2278712 -1.3591311 -0.66659009 8.1124713e-39
2.1743 -1.2501154 -0.65440857 8.2979458e-39
2.2057478 -1.2913445 -0.65245789 5.993411e-39
1.3312961 -1.1812409 -0.60060018 9.8660002e-39
2.1521392 -1.1534716 -0.655837 8.0213603e-39
1.2647058 -1.0397143 -0.60909301 3.5041458e-39
2.0877986 -1.0326625 -0.64328808 1.0970534e-38
2.1096506 -1.0771823 -0.6584745 1.2445299e-38
1.2358691 -0.99058557 -0.60461456 1.3829316e-39
2.0454054 -0.95006973 -0.64938283 8.389424e-39
1.9770746 -0.8348158 -0.65120429 1.2260193e-38
2.0104306 -0.88673532 -0.65347445 1.124748e-38
1.8864807 -0.71125072 -0.64304608 1.0871104e-38
1.9366823 -0.76454496 -0.65328807 1.3917898e-38
1.8761905 -0.65317762 -0.65035021 5.8021632e-39
1.7907588 -0.51468658 -0.64291447 8.8377582e-39
1.835813 -0.56739718 -0.65330803 3.4047335e-39
1.7517855 -0.44873342 -0.64977676 1.1241337e-38
1.6824862 -0.32810402 -0.64974701 7.8340796e-39
1.712041 -0.37583634 -0.65566349 7.9251934e-39
1.5986042 -0.20595761 -0.60422635 1.6130221e-38
1.6407142 -0.24843712 -0.65626526 7.7433273e-39
1.5757381 -0.13424578 -0.64584619 1.5577407e-38
1.6177444 -0.18204373 -0.66616654 7.1001089e-39
1.4916297 -0.017205106 -0.6821776 1.5393739e-38
1.5342083 -0.053355876 -0.65025443 7.6507743e-39
1.4619387 0.061540261 -0.66135174 1.2261618e-38
1.5142678 0.031832997 -0.63429815 2.7655032e-39
1.3901491 0.16736557 -0.64830095 1.5118588e-38
1.4264835 0.1265223 -0.63528794 8.1128287e-39
1.3514991 0.24769506 -0.63186222 1.4104082e-38
1.2934166 0.38645506 -0.62129331 1.5210787e-38
1.3158123 0.33860609 -0.62028819 1.3828944e-38
1.2659655 0.43758491 -0.61052889 1.4657617e-38
1.3009577 0.40251291 -0.6012069 9.4993617e-39
1.2302547 0.5065859 -0.60299224 1.4472503e-38
1.3612896 0.77415997 -0.64150637 2.8508464e-39
1.4181647 0.79409057 -0.61855936 5.2461069e-39
1.3890618 0.81266087 -0.66591525 1.8385036e-39
1.4561485 0.84614319 -0.64978337 4.1419314e-39
1.5141839 0.87695473 -0.62249213 5.156435e-39
1.4831339 0.9558484 -0.6946643 5.5208917e-40
1.5399435 0.95531946 -0.65152651 5.160772e-39
1.4848149 1.0199726 -0.69643342 8.2867466e-40
1.5470001 1.048166 -0.65086663 5.7146647e-39
1.478914 1.183627 -0.68787187 4.332096e-39
1.536734 1.1564255 -0.65065598 6.4525857e-39
1.4638482 1.2259396 -0.64675063 5.7153878e-39
2.5397604 -1.9018636 -0.50528532 1.2170518e-38
2.0765903 -1.8271048 -0.51765019 1.2077613e-38
2.1303134 -1.8243617 -0.50531751 1.2262003e-38
2.3844616 -1.8035121 -0.5065285 1.2445666e-38
2.4738727 -1.8285372 -0.5242945 7.5560578e-39
2.5159912 -1.8666058 -0.51624727 9.492159e-39
1.9952488 -1.7221807 -0.53740203 1.1339688e-38
2.0518968 -1.7537893 -0.52609032 1.1892862e-38
2.1505468 -1.7546732 -0.51556087 1.2169448e-38
2.24859 -1.7517726 -0.52577561 1.2261279e-38
2.3307197 -1.7690676 -0.51862264 1.198433e-38
2.4495134 -1.7675426 -0.51469362 6.6312134e-39
1.8995483 -1.6064368 -0.53710771 1.1707032e-38
1.96073 -1.6409469 -0.52238315 1.1708109e-38
2.0482657 -1.6560665 -0.52342767 1.1984696e-38
2.1424408 -1.6813573 -0.54532892 1.207689e-38
2.234915 -1.694386 -0.53792334 1.2353832e-38
2.3792994 -1.689136 -0.50408703 5.7096228e-39
1.8641677 -1.537009 -0.51518697 1.1615914e-38
1.9353949 -1.5644385 -0.51396871 1.1892499e-38
2.0164671 -1.5902237 -0.54217422 1.1800305e-38
1.7642639 -1.4388763 -0.51186925 1.1431521e-38
1.8327473 -1.4747167 -0.51097971 1.1708108e-38
1.664145 -1.3487941 -0.50598574 1.1247131e-38
1.7192641 -1.3823798 -0.50724459 1.143188e-38
2.0659263 -1.3159506 -0.54835498 1.2628248e-38
2.131068 -1.3376532 -0.58464265 9.1233821e-39
1.3833058 -1.2145413 -0.52700454 5.5320867e-39
1.4265574 -1.2376395 -0.5111872 4.8867173e-39
2.0488744 -1.2492028 -0.5206278 1.1247117e-38
2.1160216 -1.24444 -0.56905514 1.2537853e-38
1.284111 -1.1160816 -0.58512199 3.4119544e-39
1.3425734 -1.1478307 -0.55033201 6.5462386e-39
1.4147896 -1.1784687 -0.5133872 4.9785528e-39
2.0907338 -1.1838795 -0.51560295 7.4681893e-39
2.1122639 -1.1481651 -0.55002689 1.1524427e-38
1.1910642 -1.0256491 -0.57207203 4.6169281e-40
1.2627714 -1.0506155 -0.5703916 2.6743893e-39
1.3177198 -1.0832841 -0.55337781 6.6391559e-39
2.0879371 -1.0458034 -0.54840493 1.2815162e-38
2.1028988 -1.0931247 -0.56105924 1.3182145e-38
1.1800607 -0.92244303 -0.53954577 1.4758461e-39
1.2250201 -0.97245413 -0.54172468 1.9364656e-39
2.0462785 -0.95178193 -0.55009669 1.1339673e-38
1.0955943 -0.81175375 -0.52059668 1.4751245e-39
1.13527 -0.86359859 -0.52930415 1.3832918e-39
1.9737457 -0.83969307 -0.54897714 1.1893207e-38
2.0066757 -0.8905291 -0.551247 1.0878335e-38
1.8789426 -0.72192365 -0.54368311 1.1055858e-38
1.9273641 -0.77497965 -0.55644894 1.3458002e-38
1.8597163 -0.65207994 -0.54998451 4.3281233e-39
1.7801392 -0.52621794 -0.54689991 9.3905704e-39
1.8245565 -0.58015412 -0.55512899 3.0359538e-39
1.742329 -0.44658461 -0.54931861 1.0138958e-38
1.6769172 -0.33157983 -0.55370688 1.2353446e-38
1.7120076 -0.38053524 -0.54654139 9.034401e-39
1.5988672 -0.20449592 -0.55224794 1.4009728e-38
1.6236707 -0.25270063 -0.55061698 1.3920415e-38
1.569258 -0.14975424 -0.54979473 1.5854351e-38
1.6002007 -0.19785118 -0.52980208 1.115275e-38
1.4918232 -0.014031313 -0.52871174 1.6226019e-38
1.5207248 -0.059023667 -0.55236584 1.5763597e-38
1.4622729 0.051305737 -0.54280573 1.4932756e-38
1.506597 0.014669318 -0.59344745 7.2794681e-39
1.3846006 0.18205178 -0.54508805 1.5855069e-38
1.4262925 0.13339892 -0.54973489 1.1707362e-38
1.3415854 0.24913296 -0.55006373 1.1337861e-38
1.2811053 0.35541791 -0.51265478 1.2260179e-38
1.3215686 0.34890911 -0.56672156 3.3186713e-39
1.2592608 0.45584714 -0.5554868 5.4398855e-39
1.3028758 0.4075788 -0.57971293 4.5182935e-39
1.159932 0.55289274 -0.53545606 1.1240964e-38
1.2159826 0.51148558 -0.55719161 6.3614774e-39
1.1468791 0.6093989 -0.5327633 1.0311428e-38
1.4458575 0.79076958 -0.53042263 5.8914693e-39
1.4808075 0.82662219 -0.54648185 5.7074438e-39
1.5190282 0.87641615 -0.55275011 5.0646023e-39
1.5407928 0.95211923 -0.55171949 5.1604091e-39
1.5461425 1.0519643 -0.55018824 6.2678357e-39
1.4905621 1.1772157 -0.53069073 6.8210109e-39
1.5225649 1.1381003 -0.55806214 6.9135638e-39
1.4612626 1.2272825 -0.55158937 6.0838087e-39
2.3829563 -2.1084149 -0.41136694 4.9749459e-39
2.2860665 -2.0180192 -0.44710433 1.0417366e-38
2.3623004 -2.0553088 -0.43103322 8.0191981e-39
2.4469059 -2.0441515 -0.42310581 8.0184806e-39
2.5201714 -2.0227799 -0.4230867 8.1113909e-39
2.1749294 -1.9167684 -0.44942957 1.1985414e-38
2.2485962 -1.9424454 -0.44316149 1.1615911e-38
2.350852 -1.9470168 -0.44277051 1.1615909e-38
2.4550211 -1.944152 -0.44785833 1.1616626e-38
2.533339 -1.9436343 -0.43711707 9.9563853e-39
2.0962112 -1.8608643 -0.49621579 1.23542e-38
2.1548855 -1.8489323 -0.47450462 1.2538589e-38
2.2457519 -1.8392557 -0.46450546 1.244639e-38
2.3481166 -1.8444055 -0.47045889 1.2538583e-38
2.4697988 -1.8438153 -0.45431218 8.5730936e-39
2.516835 -1.8724092 -0.45543319 8.573095e-39
2.1912377 -1.7977893 -0.49787599 1.2261643e-38
2.2523632 -1.7967649 -0.49685025 1.244603e-38
2.3187714 -1.7905884 -0.494362 1.2446026e-38
2.4582806 -1.7533594 -0.44503519 6.6348217e-39
2.3720963 -1.6432818 -0.45254263 8.3847254e-39
2.4188411 -1.6802247 -0.42764583 7.7404448e-39
2.2785776 -1.5283437 -0.4468652 8.2892802e-39
2.325794 -1.5623521 -0.42679417 5.160049e-39
2.1989539 -1.4012378 -0.45997655 5.4366373e-39
2.2552059 -1.4496965 -0.4310216 5.1575252e-39
1.4874144 -1.312122 -0.48402458 4.7938028e-39
1.5388196 -1.338744 -0.46008128 5.0700282e-39
1.6206923 -1.3150915 -0.49869609 1.1154575e-38
2.0697014 -1.3120248 -0.45440483 7.5596521e-39
2.169579 -1.3389556 -0.44478756 6.2642273e-39
2.2254157 -1.3587881 -0.4169974 2.8551694e-39
1.467437 -1.2514316 -0.48616299 4.9778325e-39
1.5310239 -1.2713279 -0.478894 7.2823603e-39
1.6108211 -1.2898302 -0.49793401 1.1155296e-38
1.9988234 -1.2386931 -0.45827875 1.0234036e-38
2.0386012 -1.2467029 -0.47623721 7.3759853e-39
2.1399837 -1.2476329 -0.43737644 5.3444374e-39
2.2046537 -1.2927568 -0.40570515 1.1052616e-39
1.3831047 -1.1181753 -0.48404866 5.2551397e-39
1.4328141 -1.1731583 -0.48508516 5.439168e-39
1.6952592 -1.1389654 -0.40108192 1.2814446e-38
1.7381556 -1.1527485 -0.40454301 1.290736e-38
2.0961502 -1.1909635 -0.48527405 3.4105096e-39
2.1169114 -1.1517822 -0.45125285 6.3578733e-39
1.2809423 -1.016346 -0.45508569 3.2268414e-39
1.3262825 -1.061623 -0.46350694 4.4253804e-39
2.0799577 -1.0459344 -0.45013842 6.1745638e-39
2.1023848 -1.0920376 -0.46563515 1.0970166e-38
1.190984 -0.91011888 -0.48366153 2.6736705e-39
1.2370254 -0.95147061 -0.44617072 3.1346486e-39
1.9930729 -0.91196793 -0.40948153 7.0957985e-39
2.0370903 -0.95444274 -0.45394447 4.701603e-39
1.0956472 -0.80716354 -0.48616424 2.1204953e-39
1.15455 -0.85540318 -0.45476386 2.950256e-39
1.2074476 -0.88329268 -0.41297767 3.5034311e-39
1.9639572 -0.84826243 -0.44950157 8.2053872e-39
2.0042689 -0.89271629 -0.48638672 9.7781178e-39
1.8787228 -0.73186028 -0.44778508 8.6594976e-39
1.9205903 -0.78592575 -0.45486727 1.3641662e-38
1.8469515 -0.64915752 -0.44963261 2.7622479e-39
1.7687106 -0.5387131 -0.44684604 1.0499799e-38
1.8129603 -0.5890463 -0.46077272 2.7597284e-39
1.699001 -0.40206897 -0.40686947 1.5857951e-38
1.7258285 -0.4504686 -0.44871244 1.4932044e-38
1.6639241 -0.34420753 -0.44370535 1.3733504e-38
1.708361 -0.38921487 -0.47417873 1.3271811e-38
1.5917712 -0.21774191 -0.43641207 1.4839127e-38
1.6175495 -0.26343593 -0.45314133 1.3917538e-38
1.5549794 -0.14864983 -0.44950122 1.4564337e-38
1.4846628 -0.018781474 -0.44741496 6.1763687e-39
1.5145129 -0.067326091 -0.45229197 7.4660201e-39
1.4542072 0.05067027 -0.45161769 6.3611201e-39
1.3722855 0.17176642 -0.44617307 1.5301898e-38
1.4200693 0.12321083 -0.4575727 7.7444063e-39
1.2873178 0.28821406 -0.42379254 4.3338953e-39
1.3231348 0.24498561 -0.45321608 1.3829633e-38
1.2726578 0.35215366 -0.45208326 1.2169425e-38
1.3010312 0.30337018 -0.49613273 1.6500812e-38
1.1895968 0.4893316 -0.44044626 1.4934197e-38
1.2294264 0.44209197 -0.45159939 1.3183567e-38
1.1567831 0.54488957 -0.45114687 1.2437338e-38
1.2018895 0.50334948 -0.4993616 5.3458766e-39
1.1646335 0.60712123 -0.46936488 1.0772765e-38
1.3950791 0.74569142 -0.41994965 6.2598903e-39
1.4231467 0.77657479 -0.4452447 6.2598917e-39
1.4755913 0.82980901 -0.45004895 5.6163314e-39
1.5150205 0.88048244 -0.45081043 3.8675123e-39
1.5340035 0.95309418 -0.45060158 4.5128831e-39
1.469014 1.087369 -0.42068952 4.5136034e-39
1.524989 1.0460579 -0.44913417 4.6065193e-39
1.3969505 1.1548636 -0.40504858 2.5789399e-39
1.4555707 1.1517344 -0.45295054 5.8068589e-39
1.5097103 1.109243 -0.48829326 7.0979551e-39
1.4365692 1.2220449 -0.46133244 5.2536893e-39
2.3945558 -2.1185017 -0.39161047 6.2645903e-39
2.4137793 -2.1235137 -0.34056377 6.4482585e-39
2.3988533 -2.0927188 -0.39667121 4.6969114e-39
2.4320016 -2.0467007 -0.35135823 6.3560642e-39
2.5081847 -2.016207 -0.39637205 6.0823696e-39
2.4783154 -1.9661282 -0.33841118 6.3553454e-39
2.5069258 -1.9304248 -0.35787144 5.8036191e-39
2.4852448 -1.8411571 -0.35288978 7.0943607e-39
2.5039074 -1.8822435 -0.32685888 6.7226873e-39
2.4573052 -1.7511179 -0.34887198 7.0943593e-39
2.3876054 -1.6188731 -0.34903428 6.3564384e-39
2.4210043 -1.6693795 -0.34660205 7.7390085e-39
2.2982016 -1.5009521 -0.35806376 6.2678511e-39
2.3451469 -1.5533967 -0.3503511 5.1589784e-39
2.2774916 -1.4482442 -0.36012572 3.9622387e-39
2.3269365 -1.4288183 -0.32983986 8.2961493e-39
2.2680445 -1.3484721 -0.38078395 5.3437256e-39
2.3520021 -1.356513 -0.33413532 6.8213808e-39
2.4393542 -1.3264916 -0.30999765 6.6380699e-39
2.1789036 -1.2300943 -0.38687009 1.5655208e-39
2.2453279 -1.2468352 -0.35368639 7.4656614e-39
2.3440647 -1.2449954 -0.3199079 1.3276864e-38
2.4428725 -1.2697144 -0.30774671 5.7168353e-39
1.575199 -1.1113462 -0.35807329 1.4197019e-38
1.6403537 -1.1185648 -0.37160617 1.373604e-38
1.7365271 -1.154645 -0.38397416 1.3459812e-38
2.0993888 -1.1015528 -0.3891761 5.4348254e-39
2.1490936 -1.1460935 -0.36399958 3.6852902e-39
2.2371261 -1.1659486 -0.32559416 7.6511373e-39
2.3216805 -1.1862669 -0.31332397 1.2908448e-38
1.2894449 -1.0068513 -0.38665608 3.872564e-39
1.3001871 -1.0217175 -0.39952248 4.0565951e-39
1.5647998 -1.0878363 -0.36534041 1.3643846e-38
1.6081492 -1.0969329 -0.37686479 1.3183228e-38
2.0678468 -1.0450084 -0.36385018 4.2370137e-39
2.1297481 -1.0782968 -0.32575449 5.2540537e-39
1.253824 -0.94333303 -0.36155707 3.6878196e-39
1.9644598 -0.9280951 -0.34120309 3.131392e-39
2.0178859 -0.97557187 -0.36942464 5.157521e-39
1.1925385 -0.85000515 -0.35847452 3.9644065e-39
1.224322 -0.87564546 -0.34711134 4.1484376e-39
1.8968544 -0.80709547 -0.32942718 4.3292037e-39
1.9292763 -0.85281968 -0.34731975 4.7898259e-39
1.8592238 -0.74298108 -0.34638792 5.5255847e-39
1.904007 -0.79457623 -0.3880136 9.4917904e-39
1.8374145 -0.65216094 -0.34706497 5.7078081e-39
1.7737055 -0.54155517 -0.35242504 8.8424526e-39
1.8107244 -0.58555299 -0.32518458 9.2994468e-39
1.6980321 -0.40172318 -0.33036208 4.1448166e-39
1.731093 -0.44996896 -0.35157648 5.9894453e-39
1.6661074 -0.34485665 -0.35219797 5.345885e-39
1.7038103 -0.39465421 -0.35994956 4.4232098e-39
1.5792581 -0.221332 -0.34986416 1.2812984e-38
1.6190026 -0.2715061 -0.35312927 7.005042e-39
1.5463134 -0.14871259 -0.34954131 1.3182488e-38
1.4813869 -0.025605213 -0.35004681 1.1342187e-38
1.5135641 -0.075332038 -0.3498432 1.0601027e-38
1.4420271 0.050025184 -0.35031456 1.355271e-38
1.2991416 0.19859795 -0.30392858 1.6592997e-38
1.355944 0.16168676 -0.34778449 1.6039819e-38
1.4095956 0.11324539 -0.35975045 1.5672119e-38
1.2804205 0.26445535 -0.33993936 1.2813347e-38
1.3160455 0.22839884 -0.36917225 1.2720774e-38
1.2420866 0.34908909 -0.34904423 8.5727208e-39
1.1798522 0.46647096 -0.33798653 1.207542e-38
1.2192525 0.43371379 -0.36933109 2.3041607e-39
1.1474303 0.53739631 -0.35132253 1.2066388e-38
1.3899387 0.72686052 -0.32838899 6.444283e-39
1.4225446 0.76868623 -0.35007867 6.2609721e-39
1.4699037 0.82664973 -0.34936526 4.6983436e-39
1.5256928 0.88183188 -0.35312796 4.9771011e-39
1.5585173 0.95331645 -0.35358229 5.0700156e-39
1.6066954 0.99163556 -0.30738431 4.7934315e-39
1.3864985 1.0780687 -0.33515477 4.4239287e-39
1.4474205 1.0712955 -0.35339722 5.8979756e-39
1.5424953 1.0425531 -0.35025081 6.3603914e-39
1.6141167 1.0278003 -0.31553268 6.9139267e-39
1.3916377 1.1284137 -0.36396337 4.1462628e-39
1.4267669 1.1623024 -0.33357945 6.0841661e-39
1.4447079 1.2330087 -0.340132 5.1629357e-39
2.476167 -2.2023191 -0.20431557 6.7252041e-39
2.441366 -2.1416967 -0.24757744 6.7252055e-39
2.4309838 -2.0443728 -0.24964593 6.8166794e-39
2.4703267 -1.9758397 -0.25382951 6.7237649e-39
2.5339348 -1.9353147 -0.24229835 7.2758569e-39
2.4979496 -1.8102411 -0.29864037 7.8268685e-39
2.5439234 -1.8510268 -0.24943392 8.01198e-39
2.4870436 -1.7434872 -0.28849968 7.917625e-39
2.5353246 -1.7542443 -0.24148192 8.1041743e-39
2.3964283 -1.6072834 -0.29488558 4.9706215e-39
2.457454 -1.6469139 -0.27714038 6.903836e-39
2.5432026 -1.6456355 -0.22928363 7.9215809e-39
2.602824 -1.6017997 -0.20791365 7.5542375e-39
2.370213 -1.5423663 -0.28831655 3.86572e-39
2.4476333 -1.5483055 -0.27339879 4.7844295e-39
2.5496504 -1.5569918 -0.25725117 5.8925679e-39
2.6491153 -1.5562258 -0.23262884 7.0929048e-39
2.7190709 -1.519744 -0.21547811 6.8170368e-39
2.2882798 -1.4622297 -0.29650548 8.5702181e-39
2.3502028 -1.4428319 -0.28959641 8.294713e-39
2.4515014 -1.4501554 -0.27755073 6.5422744e-39
2.5534904 -1.4503367 -0.26727536 5.8047023e-39
2.656152 -1.4519806 -0.2426023 6.1734736e-39
2.7255855 -1.47593 -0.2202767 6.7252041e-39
2.3821628 -1.3822269 -0.29076451 7.3745546e-39
2.4569857 -1.3530055 -0.28350735 6.9142939e-39
2.5378535 -1.3451538 -0.25186226 5.9916243e-39
2.6265118 -1.3812985 -0.22487663 5.8983441e-39
2.3943925 -1.2079816 -0.25095898 2.9502602e-39
2.4660423 -1.2635318 -0.26190227 5.3473423e-39
2.5114794 -1.289961 -0.22261645 2.3963787e-39
2.2581134 -1.121996 -0.24684252 5.7146829e-39
2.3406358 -1.1700795 -0.23648745 3.8711403e-39
2.0763247 -1.0135968 -0.25367695 2.0290185e-39
2.1490269 -1.0504665 -0.23520598 2.5814734e-39
2.2253458 -1.0848819 -0.21915357 4.3299492e-39
1.9674969 -0.92757994 -0.26396149 5.5317098e-40
2.0360281 -0.97144586 -0.23706146 4.6097535e-40
2.1021059 -0.99683595 -0.20165631 6.4428761e-40
1.9420638 -0.85034269 -0.24908979 2.7658409e-40
1.8912191 -0.74644047 -0.26613221 1.0141491e-39
1.9182516 -0.73956585 -0.24276966 6.4536661e-40
1.8758504 -0.64385563 -0.29524881 6.1709499e-39
1.9570984 -0.65511131 -0.24730763 1.3825715e-39
2.009958 -0.60740894 -0.2042767 6.4536661e-40
1.785532 -0.5187968 -0.28648543 1.381664e-38
1.8628554 -0.54750156 -0.26918301 6.0816395e-39
1.9399192 -0.55539232 -0.227403 7.1930514e-39
2.0063663 -0.58364272 -0.20259972 5.5317098e-40
1.6966748 -0.40437531 -0.28262299 1.0958594e-38
1.7486764 -0.4446831 -0.2686823 1.3080526e-38
1.8551832 -0.45281398 -0.2292605 4.3328219e-39
1.923825 -0.483621 -0.21117602 7.5629115e-39
1.6546603 -0.34189686 -0.26296011 1.1052237e-38
1.7445834 -0.3591682 -0.22595181 6.7255698e-39
1.8213733 -0.35608059 -0.20732085 1.8442699e-39
1.578472 -0.2363746 -0.25552565 1.0501593e-38
1.6242236 -0.27518263 -0.2339163 1.1423557e-38
1.7573929 -0.26940513 -0.20266421 3.1339297e-39
1.8175992 -0.2254269 -0.20234491 1.8431895e-39
1.4975164 -0.10487059 -0.24672957 7.645001e-39
1.5381533 -0.15024498 -0.24639353 1.0779263e-38
1.6050626 -0.14457822 -0.20080911 3.2225044e-39
1.7879021 -0.18882208 -0.20117712 1.0145079e-39
1.8128526 -0.19590488 -0.2024169 1.1988991e-39
1.4718615 -0.038886745 -0.24977674 7.0932663e-39
1.524466 -0.070054971 -0.23493901 1.3175258e-38
1.3879936 0.068637751 -0.2210881 8.844256e-39
1.4290386 0.043959308 -0.25507641 6.0805591e-39
1.2907407 0.19383328 -0.23849384 4.7005142e-39
1.3455673 0.14745766 -0.25052518 1.2074337e-38
1.4038662 0.10192837 -0.28720164 4.9752962e-39
1.2531668 0.25045085 -0.24862333 5.070024e-39
1.1942235 0.38766158 -0.25452593 1.1062717e-38
1.2144613 0.34257209 -0.24877246 6.361476e-39
1.1687261 0.45112452 -0.24810489 1.1429692e-38
1.2015542 0.402778 -0.23985727 1.2918122e-39
1.1431665 0.52984846 -0.25449875 1.1142988e-38
1.3650557 0.68810403 -0.22071138 6.6290344e-39
1.3886127 0.71490753 -0.25357345 6.6290344e-39
1.4356469 0.76397735 -0.25322509 6.0773067e-39
1.4812435 0.82057565 -0.25768018 5.8046925e-39
1.5235691 0.86603284 -0.23606353 5.1614909e-39
1.558201 0.94708741 -0.24606445 6.7291754e-39
1.6167421 0.98566979 -0.28305072 4.055865e-39
1.3906651 1.0511019 -0.29532868 3.5034115e-39
1.4641092 1.0655664 -0.25670061 6.9139239e-39
1.5551207 1.0491831 -0.25203407 7.927357e-39
1.6142331 1.0135552 -0.29327098 6.821371e-39
1.4882773 1.1577899 -0.26112944 8.2043012e-39
1.5034912 1.1489167 -0.22446504 8.3883352e-39
1.4833237 1.2429014 -0.25274774 8.573804e-39
1.5043515 1.2795739 -0.2097284 8.5741627e-39
1.4966187 1.3025839 -0.22357427 8.8507496e-39
1.509591 1.3117528 -0.2083462 8.6663584e-39
2.4882326 -2.2084508 -0.14503397 6.5408156e-39
2.4669688 -2.1476529 -0.15030393 6.5408156e-39
2.4533527 -2.0411904 -0.14992416 6.6319294e-39
2.4838233 -1.9873306 -0.15469146 6.7234076e-39
2.555717 -1.9595987 -0.15377098 6.9999917e-39
2.6104755 -1.9273814 -0.12408757 7.1843802e-39
2.5866406 -1.8487796 -0.17754988 7.7368323e-39
2.6148524 -1.8542912 -0.12934887 7.5528011e-39
2.5781252 -1.743013 -0.15529831 8.0134178e-39
2.6060367 -1.7801352 -0.11597333 7.6453555e-39
2.5791781 -1.6629794 -0.16272007 8.0141366e-39
2.6300044 -1.6239135 -0.13535015 7.73827e-39
2.7108269 -1.6032315 -0.10508043 7.8308286e-39
2.6672719 -1.585862 -0.17023346 7.5542389e-39
2.7532201 -1.552588 -0.14802781 7.1858179e-39
2.8040671 -1.5365894 -0.10543989 7.0014308e-39
2.6888044 -1.4123775 -0.15854016 5.8976098e-39
2.7472003 -1.4663012 -0.15341157 6.3575034e-39
2.5583148 -1.3222519 -0.15293373 4.1466369e-39
2.6401422 -1.3772929 -0.15289016 4.6990792e-39
2.3960679 -1.2048758 -0.15208437 4.149525e-39
2.4466441 -1.2397478 -0.15089145 3.3186853e-39
2.5168862 -1.2889007 -0.14977464 2.7640682e-39
2.2967684 -1.1035061 -0.19768791 1.511069e-38
2.3430624 -1.1415042 -0.14769718 9.5861665e-39
2.168679 -1.0162952 -0.19661793 1.1978173e-39
2.2711864 -1.0412906 -0.17966029 7.0072042e-39
2.3375404 -1.0664334 -0.14257009 9.312811e-39
1.9864547 -0.90975505 -0.19280048 3.6877972e-40
2.0519998 -0.92600232 -0.1811409 6.4572394e-40
2.1496506 -0.94372088 -0.16510122 2.0286556e-39
2.2534924 -0.94727576 -0.13502856 4.3335435e-39
2.3160634 -0.98676836 -0.10917705 4.5179348e-39
1.9737626 -0.84182662 -0.18427934 5.5317098e-40
2.0382514 -0.85872495 -0.16915485 9.2195069e-40
2.1680298 -0.83248097 -0.13331059 4.3335435e-39
2.2207096 -0.87315571 -0.12043373 5.0711058e-39
1.8987707 -0.7459479 -0.19371584 1.7517142e-39
1.9468603 -0.74390322 -0.17633194 1.4747671e-39
2.0470731 -0.74814475 -0.14897953 2.0279395e-39
2.1554353 -0.74718118 -0.12163696 1.5673215e-39
2.2014959 -0.79835647 -0.10267723 1.0152253e-39
1.9825343 -0.66117901 -0.18118535 1.1981803e-39
2.0380652 -0.63754314 -0.1475157 1.3825701e-39
2.1201682 -0.67917383 -0.11705431 2.9495357e-39
1.9797282 -0.51911265 -0.17091656 7.9302549e-39
2.0191107 -0.56037098 -0.14279267 8.2975787e-40
1.8732724 -0.42055777 -0.18868624 1.9379005e-39
1.9514128 -0.45118865 -0.1460721 6.1796169e-39
1.8493706 -0.34813279 -0.18352525 1.5680432e-39
1.9486424 -0.3523106 -0.13857684 7.8376991e-39
2.0110753 -0.31107876 -0.11720332 6.7317145e-39
1.5994022 -0.20005983 -0.19727224 9.5865042e-39
1.6297861 -0.24018897 -0.19694783 1.041701e-38
1.762929 -0.23509459 -0.19552682 2.6725901e-39
1.844401 -0.2501229 -0.18308096 3.225747e-39
1.9572152 -0.25800517 -0.16449454 6.3614802e-39
2.0483296 -0.25107142 -0.13550958 4.6108563e-39
2.1354618 -0.21967886 -0.11382851 6.7309984e-39
2.2006967 -0.20330845 -0.10263967 1.5029331e-38
1.5822937 -0.14695261 -0.19695261 1.2348035e-38
1.6509638 -0.13127325 -0.18774745 7.2801827e-39
1.7505542 -0.13592766 -0.17810436 4.5172089e-39
1.8516818 -0.16872525 -0.18389805 5.0707484e-39
1.9474732 -0.16910329 -0.1735943 6.8228269e-39
2.0625556 -0.17081586 -0.15933864 3.7807341e-39
2.1419125 -0.15242913 -0.13616966 4.7023246e-39
2.2183008 -0.15269932 -0.11021849 9.6823334e-39
1.499786 -0.0015225295 -0.1990495 1.6952369e-38
1.5788239 -0.046622783 -0.18823977 1.935164e-38
1.6369078 -0.040479057 -0.15826073 1.7141119e-38
1.7481285 -0.039686523 -0.13898864 1.1982149e-38
1.833357 -0.064202502 -0.13582419 7.8344369e-39
1.9467257 -0.069989704 -0.12157933 8.9433138e-39
2.0655124 -0.088602595 -0.12285457 6.0834374e-39
2.1100428 -0.099552594 -0.11413648 7.6507337e-39
1.3964736 0.09780243 -0.19893628 9.0214236e-39
1.4688865 0.06914366 -0.18027058 1.6953818e-38
1.5485353 0.051008552 -0.15101928 1.6127695e-38
1.6432617 0.026154956 -0.12977809 1.6591201e-38
1.7329242 0.021365259 -0.12993689 1.3088132e-38
1.2897388 0.19129141 -0.18963461 8.3829177e-39
1.3531275 0.16209412 -0.18708754 1.0315401e-38
1.448921 0.14384282 -0.16594996 1.6678312e-38
1.5362376 0.1527511 -0.12368063 6.268207e-39
1.2509127 0.26536763 -0.1609104 9.7651165e-39
1.3470634 0.24755426 -0.14168981 1.2991587e-38
1.4458529 0.22963536 -0.13256048 1.3269628e-38
1.5176309 0.20866361 -0.12579933 7.188343e-39
1.1448542 0.34839147 -0.14184174 1.0501593e-38
1.2225927 0.32233304 -0.14818156 3.0399208e-39
1.0931739 0.48498446 -0.1077977 1.2067457e-38
1.1354277 0.45073089 -0.15267384 8.7513303e-39
1.0840243 0.51441371 -0.10518247 1.0961119e-38
1.1378499 0.52596337 -0.16108859 8.379301e-39
1.2216139 0.58888376 -0.15024179 6.2609749e-39
1.2734493 0.62433392 -0.15440214 6.3528118e-39
1.3341919 0.67177886 -0.16866975 6.4446473e-39
1.3792323 0.750646 -0.14148089 5.2507999e-39
1.4378443 0.76967895 -0.16834857 5.5266637e-39
1.3982077 0.80072975 -0.11699459 6.8217339e-39
1.4574115 0.85178876 -0.14889836 6.3603942e-39
1.5094603 0.84559631 -0.19353662 5.2540481e-39
1.4860293 0.94575822 -0.13382336 6.3600341e-39
1.5179435 0.96271604 -0.17351221 7.3741846e-39
1.4886566 1.0312401 -0.18041934 5.1614923e-39
1.5161393 1.0555376 -0.14901465 7.7429672e-39
1.4867996 1.1536716 -0.14410409 8.5730866e-39
1.5050131 1.1174966 -0.16699344 8.5727264e-39
1.4910035 1.2275333 -0.15081218 8.6656409e-39
1.5070003 1.278509 -0.15083455 8.8503909e-39
1.520372 1.319459 -0.14989868 9.0347822e-39
2.4974928 -2.2102988 -0.079144984 6.0805591e-39
2.5061648 -2.2187614 -0.040129937 4.9738556e-39
2.481061 -2.1452889 -0.050093986 5.5266665e-39
2.500942 -2.1967273 -0.037609361 4.7894644e-39
2.4661942 -2.0418656 -0.053297974 5.8947301e-39
2.4875522 -1.9882517 -0.045286443 5.89437e-39
2.5502732 -1.9669352 -0.048188146 6.1713142e-39
2.6195271 -1.9297286 -0.058842748 6.7237649e-39
2.6371224 -1.8537906 -0.048868921 7.0921873e-39
2.5993295 -1.7276175 -0.096357159 7.6457142e-39
2.6248193 -1.7459416 -0.04853107 7.5538801e-39
2.652488 -1.6603192 -0.057604387 7.6464359e-39
2.7435393 -1.6215607 -0.045489363 7.5549605e-39
2.8121922 -1.6081707 -0.019595526 7.0943439e-39
2.7843356 -1.5815277 -0.081475608 7.0017882e-39
2.8247573 -1.5604 -0.051147483 6.4493389e-39
2.6758099 -1.4150255 -0.048938178 5.7128626e-39
2.7512755 -1.4659573 -0.058299553 4.4217623e-39
2.4953377 -1.3081027 -0.0071871527 2.6733019e-39
2.5576777 -1.3343964 -0.045154382 6.9124862e-39
2.6277492 -1.3795344 -0.05709016 7.0039602e-39
2.3863244 -1.2089889 -0.045729 9.9545721e-39
2.4431586 -1.2534323 -0.047054011 7.5578528e-39
2.5065808 -1.2946389 -0.065769345 7.7418839e-39
2.3534565 -1.1446896 -0.049607266 1.0047126e-38
2.2943523 -1.0063568 -0.0088085392 3.6867308e-39
2.3544242 -1.0565233 -0.055138346 3.411946e-39
2.181819 -0.91780615 -0.01461828 9.3124621e-39
2.2597868 -0.93727982 -0.048593801 6.3618446e-39
2.3285058 -0.97147721 -0.07195431 5.07111e-39
2.1770794 -0.87497103 -0.021414749 1.2910933e-39
2.2278774 -0.84011376 -0.052655514 3.6885385e-39
2.3044353 -0.88167274 -0.0033099127 1.3553817e-38
2.1956317 -0.7551983 -0.090572961 6.4572534e-40
2.2407589 -0.75212246 -0.046757292 9.2231363e-40
2.3080299 -0.71305358 -0.018783711 1.5676816e-39
2.0711806 -0.61947614 -0.08638452 4.7912567e-39
2.1472523 -0.65022475 -0.075695314 1.0134943e-38
2.2598212 -0.66078079 -0.054070763 8.0177211e-39
2.3551416 -0.65888911 -0.02677241 1.1524791e-38
2.4088948 -0.61998796 -0.01346651 2.9513307e-39
2.0319779 -0.545169 -0.080120467 1.3811268e-39
2.1566362 -0.54105508 -0.049453091 1.3545045e-38
2.2468989 -0.548123 -0.034862489 1.4560667e-38
2.355135 -0.56529677 -0.017528716 7.2830736e-39
2.4045739 -0.58995122 -0.0080203181 4.4253734e-39
1.9780428 -0.4395602 -0.07267905 1.9350194e-39
2.0397825 -0.4543801 -0.040181424 1.0872864e-38
2.1428576 -0.44245061 -0.015613588 1.732651e-38
2.2212548 -0.47832364 -0.011019445 9.122624e-39
1.9776111 -0.36562222 -0.066174433 3.5941736e-39
2.0286736 -0.32714871 -0.046276517 6.0819871e-39
2.1429319 -0.35981059 -0.0093237916 1.7510167e-38
2.2248502 -0.38021934 -0.0039921198 2.1845153e-38
2.0655849 -0.27745137 -0.061954014 4.0566035e-39
2.1529763 -0.23955375 -0.044378746 5.9001476e-39
2.2087412 -0.20541023 -0.047089897 4.6101388e-39
2.0762064 -0.10389986 -0.038468305 9.9585559e-39
2.1579449 -0.11951781 -0.039170343 8.8518511e-39
2.2276316 -0.16430835 -0.054296724 5.8094023e-39
1.5918045 -0.0037617958 -0.0065808562 8.8507665e-39
1.6583172 -0.018457236 -0.05086571 1.3553454e-38
1.7470797 -0.044471256 -0.048165418 1.0603557e-38
1.8449975 -0.063215762 -0.050107807 1.1802463e-38
1.9459689 -0.082033873 -0.047841005 1.1157095e-38
2.0297699 -0.093754262 -0.052626364 1.0972706e-38
1.5662191 0.062306207 -0.050841425 1.3092472e-38
1.6204038 0.036582392 -0.052136593 1.4751992e-38
1.3934642 0.19315547 -0.019893143 7.3828531e-40
1.4403069 0.17835227 -0.041018538 2.3059627e-39
1.5378138 0.14073086 -0.057668634 1.0418448e-38
1.6137415 0.10961734 -0.014847216 1.4198818e-38
1.2908173 0.28909177 -0.027561856 1.0152295e-39
1.3459129 0.25048193 -0.045984309 1.6602374e-39
1.4259497 0.23358211 -0.084843986 3.1350045e-39
1.1759858 0.38820213 -0.045393348 4.0547846e-39
1.2392474 0.34729871 -0.051536519 1.5684005e-39
1.3079015 0.3079586 -0.076708809 4.7945217e-39
1.0926777 0.48775628 -0.087165758 1.2989766e-38
1.1545995 0.45539603 -0.047229458 3.1335514e-39
1.2222065 0.43653819 -0.06252446 2.7669479e-39
1.0787562 0.53261501 -0.08417061 1.2252566e-38
1.1497854 0.53189057 -0.039119571 3.4101397e-39
1.2140568 0.58688247 -0.047599386 4.1469775e-39
1.2635911 0.62948543 -0.044815946 4.5157586e-39
1.3289061 0.68362027 -0.036425188 6.8195619e-39
1.3544397 0.73854864 -0.053317305 7.8326292e-39
1.4185804 0.77955002 -0.02659066 5.8972483e-39
1.3986373 0.80299479 -0.087093033 7.0054049e-39
1.4456964 0.84969598 -0.047556508 6.1756442e-39
1.4888599 0.94810688 -0.051416349 6.6362637e-39
1.5027236 0.97596878 -0.033179678 7.0976005e-39
1.4893072 1.0559 -0.031590588 7.2816331e-39
1.5085816 1.0463325 -0.078139737 7.4660243e-39
1.476211 1.1476979 -0.051032662 8.573088e-39
1.5033854 1.1039762 -0.093926206 8.2039467e-39
1.4874647 1.2450278 -0.049497373 8.7581995e-39
1.5029497 1.2901381 -0.05906868 8.9425907e-39
1.4996918 1.3015834 -0.054728121 8.9422334e-39
1.5078418 1.3101414 -0.054863792 9.0347864e-39
2.4879327 -2.207588 0.023343034 4.3284848e-39
2.4645281 -2.1478641 0.049156692 4.4199616e-39
2.4446812 -2.0483623 0.050126106 4.5117971e-39
2.4619029 -1.9531476 0.054050412 4.6039913e-39
2.5392582 -1.9186128 0.028660804 5.0646093e-39
2.6078241 -1.9084246 0.0079940744 5.4333919e-39
2.5648139 -1.870181 0.071352668 5.0646093e-39
2.6276379 -1.838258 0.036580242 5.5255875e-39
2.6523609 -1.7477958 0.05228512 6.1713142e-39
2.6835113 -1.6877406 0.038805939 6.8174011e-39
2.7492814 -1.6584806 0.049942352 6.63337e-39
2.8478985 -1.6234709 0.051705364 6.0805577e-39
2.7762187 -1.5164151 0.059203871 6.1734764e-39
2.8491981 -1.5714772 0.037237518 4.7901819e-39
2.6625783 -1.4274728 0.060963862 5.8054184e-39
2.7289374 -1.4775406 0.052701071 6.173838e-39
2.4893346 -1.3077313 0.017979579 6.4464214e-40
2.5598588 -1.3379776 0.056317177 4.792714e-39
2.6132133 -1.3823512 0.070122436 5.6213887e-39
2.3810003 -1.2133008 0.023245908 7.371993e-40
2.4457273 -1.2497896 0.048577663 3.5948953e-39
2.5138767 -1.2850872 0.076345578 5.8990588e-39
2.3684864 -1.1451331 0.038558677 4.3324631e-39
2.4193273 -1.1736982 0.087402388 1.0140414e-38
2.2829244 -1.0166248 0.058008846 8.3840108e-39
2.3415108 -1.0628048 0.04698465 6.0823738e-39
2.4069519 -1.049374 0.097242996 1.3000282e-38
2.168252 -0.93265253 0.034455966 1.1893214e-38
2.2422731 -0.96755129 0.047281306 1.1337156e-38
2.3404608 -0.90939409 0.052045081 1.3553817e-38
2.089371 -0.86342525 0.062090285 1.6598745e-39
2.1270533 -0.86797869 0.02281036 2.4896323e-39
2.2569246 -0.87235999 0.036297966 1.18943e-38
2.3683376 -0.88213027 0.046756446 1.2908809e-38
2.4335825 -0.85179693 0.05534764 1.4291742e-38
2.2858319 -0.76062793 0.003545925 1.1989005e-39
2.3525925 -0.73194695 0.021821363 3.5963414e-39
2.413748 -0.74911553 0.06620869 1.4291385e-38
2.3905706 -0.67660677 0.019806705 1.4107354e-38
2.4285421 -0.64377409 0.056499064 5.9015881e-39
2.2915773 -0.50317836 0.0033261341 4.0533483e-39
2.3688591 -0.53045911 0.011784934 8.8504021e-39
2.4500871 -0.56052732 0.052767649 1.005039e-38
2.5313034 -0.52053493 0.080787301 3.6889112e-39
2.1724389 -0.4400208 0.0017145072 1.7052863e-38
2.2513843 -0.44024423 0.014859944 1.9636547e-38
2.3335705 -0.43976775 0.029129567 1.4198477e-38
2.4266415 -0.46500233 0.043644059 8.575281e-39
3.7481697 -0.41774845 0.082876228 1.982856e-38
3.8485107 -0.44699147 0.084422834 1.9828202e-38
3.9449759 -0.47487515 0.09265618 1.9736365e-38
2.2585022 -0.35855159 0.0033686373 1.9170057e-38
2.3561559 -0.35493776 0.018612038 1.9080793e-38
2.4324815 -0.37738159 0.035896748 2.0929103e-38
3.3741162 -0.3084729 0.09575659 2.1028173e-38
3.4460039 -0.32893762 0.090391025 2.0750869e-38
3.5470047 -0.35604858 0.089738689 2.0381729e-38
3.6513841 -0.38494644 0.090515926 2.0105144e-38
3.7075934 -0.39957541 0.088280134 2.001295e-38
2.1946511 -0.25951132 1.3913706e-05 1.2162867e-38
2.2222102 -0.24232721 0.0091910297 1.308627e-38
2.3186784 -0.29805535 0.024773838 1.0786858e-38
2.5713696 -0.20249921 0.071003646 2.1118929e-38
2.6354454 -0.2101773 0.082606934 2.1211843e-38
2.733706 -0.22362879 0.092710078 2.111929e-38
2.0779779 -0.10944447 0.016806452 1.6508078e-38
2.1623569 -0.13962524 0.017913865 1.8444186e-38
2.2433393 -0.14395462 0.045552801 1.8812952e-38
2.3482862 -0.14739725 0.065236233 2.1119287e-38
2.4457078 -0.17218934 0.071817093 2.1119289e-38
2.5333769 -0.19175629 0.077549189 2.1119289e-38
1.4931973 -0.029223807 0.042833369 8.1160993e-39
1.5239854 -0.019463178 0.054968044 4.0584084e-39
1.6430808 -0.0289717 0.0057821474 7.560399e-39
1.7415135 -0.044533931 0.0045853062 8.9433348e-39
1.8457316 -0.063952304 0.0028077138 8.9433348e-39
1.9460825 -0.081101812 0.00093827333 8.39124e-39
2.0326865 -0.094444089 1.2886877e-05 8.5763558e-39
2.1639385 -0.098588042 0.058971714 2.1210767e-38
1.5602323 0.037262253 0.052078355 1.7524344e-39
1.6137886 0.086470447 0.040221177 4.2413521e-39
1.3948425 0.19412169 0.04761314 7.3828531e-40
1.4231378 0.17209581 0.051635664 1.1070636e-39
1.5559522 0.15314037 0.044446029 6.0856192e-39
1.6215825 0.12302674 0.052420389 3.3193972e-39
1.290861 0.29099238 0.040334862 6.4608968e-40
1.3434838 0.24337767 0.051027291 7.3828531e-40
1.199694 0.39858618 7.60585e-06 6.4608968e-40
1.252789 0.35057455 0.048618667 7.3828531e-40
1.170813 0.46895501 0.037952669 1.0155897e-39
1.2173526 0.42874452 0.062670983 6.4608968e-40
1.1414843 0.5209623 0.051515054 5.5461151e-40
1.3573127 0.6915136 0.0019728276 5.9012182e-39
1.3852553 0.71200448 0.0071123769 4.7948748e-39
1.46227 0.76812112 0.055073623 7.6529337e-39
1.5015939 0.79795188 0.040823206 8.2986605e-39
1.4865501 0.84561878 0.048587944 8.5741656e-39
1.5033712 0.8563996 0.049592137 8.574167e-39
1.4955102 0.91264135 0.010659922 7.7429672e-39
1.5150048 0.95616651 0.051237583 8.1121112e-39
1.4804434 1.0612524 0.049746957 8.0195582e-39
1.5072364 1.0147355 0.058358017 7.9277213e-39
1.4551535 1.1474638 0.050846875 8.6660039e-39
1.4641328 1.2420064 0.047735538 9.1273407e-39
1.5011853 1.2957332 0.0012465364 9.1269834e-39
1.4967977 1.3031728 0.016989838 9.3120935e-39
1.5041832 1.307725 0.0044357958 9.2198965e-39
2.4509158 -2.1471963 0.10843892 4.971692e-39
2.2493522 -2.0012381 0.19796267 4.6983464e-39
2.3769195 -2.0421162 0.11749333 5.0642492e-39
2.4287446 -2.052948 0.1086224 4.7880197e-39
2.1879876 -1.9235623 0.14561188 1.4837311e-38
2.2522054 -1.9383874 0.17258826 5.3437172e-39
2.3484135 -1.9435316 0.1314297 4.9731312e-39
2.4453309 -1.9384795 0.11450574 4.7876609e-39
2.5008564 -1.9002898 0.10284068 4.6951052e-39
2.1942978 -1.8958101 0.14537966 1.6127684e-38
2.2575374 -1.8732983 0.15631023 1.3823522e-38
2.3222699 -1.8322231 0.16143991 1.2072532e-38
2.4577427 -1.8618166 0.13543046 5.2479174e-39
2.5511446 -1.8481559 0.12530671 4.9720522e-39
2.6119313 -1.8081739 0.11961648 5.1560833e-39
2.3397098 -1.7448661 0.17468806 1.3731326e-38
2.4511364 -1.7454352 0.16018559 5.6210243e-39
2.5570734 -1.7534988 0.15941945 5.3415564e-39
2.6339626 -1.7427081 0.13074753 5.5248644e-39
2.3796701 -1.6781968 0.18308875 9.7694619e-39
2.4451213 -1.6574571 0.18220685 1.5023507e-38
2.5453618 -1.6342294 0.1811413 1.1887781e-38
2.6641786 -1.6661124 0.15934972 7.0932607e-39
2.7483134 -1.6475846 0.14713481 5.9872803e-39
2.824204 -1.6212296 0.12730557 5.1586028e-39
2.6684291 -1.5942923 0.19840758 1.0320451e-38
2.7532177 -1.5424684 0.15960167 6.4489801e-39
2.8166182 -1.5859327 0.1260221 4.5128747e-39
2.6618934 -1.4347349 0.15895681 7.6464485e-39
2.7157097 -1.4856353 0.14156498 7.0014364e-39
2.5698965 -1.3341503 0.14435475 6.727739e-39
2.6200788 -1.3824264 0.15172037 6.7266586e-39
2.4628043 -1.2298037 0.15178968 8.8489532e-39
2.5433276 -1.2351943 0.16239801 1.0786143e-38
2.6080701 -1.2181799 0.19401415 1.2631139e-38
2.3961072 -1.1085956 0.10199115 1.2815532e-38
2.4506896 -1.1734239 0.11420904 1.0693589e-38
2.5569065 -1.1497941 0.15655859 1.2999564e-38
2.6223295 -1.1292959 0.18878928 1.3553095e-38
2.3862996 -1.0799495 0.10291047 1.3552739e-38
2.461163 -1.0725207 0.1128764 1.3184316e-38
2.5382357 -1.0911044 0.14697656 1.3368705e-38
2.6492355 -1.0932637 0.18022741 1.364601e-38
2.3497076 -0.90474945 0.10932181 1.3830767e-38
2.0936303 -0.85449791 0.11114718 2.0293744e-39
2.1336944 -0.83742678 0.12833883 2.8587764e-39
2.2538345 -0.82953531 0.15224451 5.071833e-39
2.3601313 -0.8552044 0.1389786 1.152588e-38
2.4283373 -0.84395683 0.12457973 1.3553821e-38
2.2847333 -0.79778963 0.15371738 2.1204967e-39
2.3652804 -0.75270069 0.14236021 3.5037885e-39
2.4394357 -0.75544864 0.14813121 1.3645655e-38
2.5380952 -0.7331934 0.18075371 1.5212977e-38
4.854526 -0.70527238 0.19612716 1.2355321e-38
4.9375043 -0.70545387 0.19236481 1.2355682e-38
5.0522485 -0.70848507 0.18954587 1.2079814e-38
2.3990498 -0.69810027 0.11422866 1.6595171e-39
2.4633958 -0.65141803 0.12166018 1.1248928e-38
2.5265749 -0.6511119 0.16615185 1.4568326e-38
4.3847814 -0.68021601 0.15184973 1.2078736e-38
4.4353824 -0.65916598 0.14897077 1.2263124e-38
4.5507946 -0.65893126 0.16851923 1.3001051e-38
4.650279 -0.66887516 0.17776385 1.3185441e-38
4.7554431 -0.67914474 0.18126892 1.3185801e-38
4.8384552 -0.67503154 0.17600228 1.3186162e-38
4.9587927 -0.69179863 0.17172416 1.2172368e-38
5.0443134 -0.69355166 0.1906932 1.2173088e-38
2.4878764 -0.57480431 0.11202028 1.0787956e-38
2.5425978 -0.56646442 0.14852755 6.8235528e-39
2.6090484 -0.54833436 0.16086653 3.1360962e-39
4.0639648 -0.50598991 0.11496689 1.9735647e-38
4.1601801 -0.51577806 0.14591636 1.9920038e-38
4.246747 -0.53497893 0.16407342 1.9920036e-38
4.3408742 -0.55437875 0.17594917 2.0104429e-38
4.4450197 -0.57653105 0.1795748 1.9827123e-38
4.557858 -0.59202957 0.19073838 2.0195906e-38
3.7651315 -0.40868181 0.1173909 2.0012948e-38
3.8570182 -0.42230675 0.14183715 2.0197339e-38
3.9502523 -0.4471772 0.14985116 2.0197339e-38
4.0420275 -0.47468093 0.15572758 2.0105144e-38
4.1292872 -0.49069747 0.18076573 2.0012948e-38
3.386992 -0.30443963 0.12900022 2.0289534e-38
3.4511967 -0.31602237 0.13199471 2.0658313e-38
3.5528877 -0.33496985 0.14207152 2.0566478e-38
3.6515918 -0.3598873 0.14424631 2.0473923e-38
3.7424138 -0.37608075 0.16204055 2.0566118e-38
3.8239498 -0.38886854 0.18288387 2.0658313e-38
2.6636949 -0.20527935 0.12358679 2.0381728e-38
2.7439859 -0.21960157 0.12014309 2.0381728e-38
2.8509531 -0.22682577 0.13115974 2.0473923e-38
2.9531531 -0.23056452 0.14865126 2.0566119e-38
3.0461652 -0.2426741 0.14547111 2.0566119e-38
3.1652811 -0.27036211 0.12555613 2.0381728e-38
3.2616758 -0.28212875 0.12997034 2.0381728e-38
3.3508952 -0.29345155 0.13782179 2.0381728e-38
3.4327621 -0.29319033 0.17401512 2.0566475e-38
3.5363245 -0.29948986 0.19898959 2.0474279e-38
2.2889061 -0.11954885 0.11229558 2.0473209e-38
2.3612902 -0.13212185 0.12081923 2.0473568e-38
2.4468663 -0.14082928 0.14900191 2.0473568e-38
2.5490668 -0.16529159 0.15046169 2.0565762e-38
2.6368582 -0.17831182 0.16233511 2.0657956e-38
2.7456722 -0.18631738 0.17532258 2.0842346e-38
2.8482122 -0.19328493 0.18836348 2.0934183e-38
1.5313282 -0.028773816 0.15249379 2.8595051e-39
1.5763779 0.043141622 0.15164405 6.4644981e-40
1.6023268 0.089917921 0.13869494 5.5389405e-40
1.3810059 0.1809337 0.15808162 9.2267657e-40
1.4260181 0.15211472 0.14675765 1.2918164e-39
1.5698906 0.13124725 0.15712222 1.9368271e-39
1.6054502 0.11589474 0.12787049 6.4609108e-40
1.2935275 0.28925321 0.16878782 9.2267657e-40
1.3332598 0.2447575 0.14738007 9.2267657e-40
1.2670319 0.35019338 0.15038781 9.2231643e-40
1.1897875 0.49134234 0.15149638 9.230325e-40
1.2263089 0.44305319 0.15036307 8.3048094e-40
1.1666523 0.53605914 0.15407814 4.6169421e-40
1.1973151 0.6054486 0.16529855 1.0761972e-42
1.2233547 0.65031576 0.17654909 1.8546606e-40
1.3920023 0.69810545 0.14124526 8.4834217e-39
1.3919209 0.75984257 0.16026488 1.0235132e-38
1.4248672 0.76066798 0.12751952 9.3131725e-39
1.3955606 0.80776173 0.18182322 1.0787944e-38
1.4361321 0.84856039 0.14701654 1.0326606e-38
1.4741807 0.95429766 0.16090393 9.4964834e-39
1.5070015 0.95886886 0.11202396 8.9429509e-39
1.4575642 1.0531057 0.14942251 9.0344276e-39
1.5034759 1.0045667 0.10443655 8.5738096e-39
1.3926828 1.1689129 0.17745855 8.1124727e-39
1.41722 1.1368638 0.14361984 8.6660053e-39
1.3951001 1.2054477 0.17560168 8.7582009e-39
1.4180539 1.2192624 0.13112803 9.403929e-39
2.268259 -2.0054579 0.26745167 4.8820145e-39
2.2827704 -1.9783258 0.23451117 4.7898203e-39
2.3375881 -1.9398713 0.259074 4.6976233e-39
2.3378606 -1.8453521 0.25008905 7.0932635e-39
2.3345058 -1.7459111 0.2434926 1.0137503e-38
2.4433556 -1.7332591 0.27167618 5.3469668e-39
2.5132508 -1.7156441 0.286731 2.0286514e-39
2.3842242 -1.6929622 0.20963986 4.8859942e-39
2.4470475 -1.6710658 0.22227146 6.452957e-39
2.5468483 -1.6432906 0.25111544 6.6359007e-39
2.613744 -1.6148652 0.2789427 1.105693e-38
2.595711 -1.5966673 0.24082056 1.4931683e-38
2.6435757 -1.5661882 0.2484363 1.4193016e-38
2.7210882 -1.5330695 0.24896146 7.3723671e-39
2.6773736 -1.4399476 0.24401006 6.8195689e-39
2.7082427 -1.4835378 0.26608741 6.635535e-39
2.5762403 -1.326375 0.231324 8.4794518e-39
2.6371191 -1.3479168 0.26657718 9.1255387e-39
2.7168665 -1.306504 0.29416278 1.2262354e-38
2.4872341 -1.2500364 0.20649587 8.664922e-39
2.5574129 -1.2658801 0.2178753 1.0970532e-38
2.6460946 -1.2518157 0.23907475 1.2169798e-38
2.7324834 -1.2512007 0.28041965 1.3092116e-38
2.5931928 -1.1258997 0.20515567 1.3553094e-38
2.6530967 -1.142167 0.23012337 1.3553094e-38
2.722662 -1.1400328 0.27586848 1.3645651e-38
2.6913075 -1.053095 0.22356723 1.429102e-38
2.7189746 -1.0569985 0.2587387 1.4751997e-38
2.4849279 -0.90950972 0.20435573 9.9592664e-39
2.5743597 -0.92336351 0.21855992 1.493711e-38
2.663429 -0.94690424 0.26147628 1.5489564e-38
2.704833 -0.98739505 0.28276566 1.4567607e-38
2.4678383 -0.85541654 0.20229635 1.2540027e-38
2.5706258 -0.8391673 0.22170301 1.6318964e-38
2.611388 -0.85111696 0.26406184 1.6503714e-38
4.9673147 -0.87139302 0.29741377 1.8442038e-38
5.0532947 -0.87570685 0.28969082 1.8904094e-38
5.1452231 -0.87491173 0.2796084 1.7613351e-38
5.2652073 -0.85097796 0.27895683 4.9796682e-39
5.3420405 -0.82383615 0.28518543 5.2551719e-39
5.4475069 -0.81695223 0.29081255 3.4112649e-39
5.559339 -0.81566757 0.29411134 6.6406315e-39
5.6016598 -0.82189834 0.29904377 6.9172184e-39
2.5702345 -0.74643433 0.24705628 1.5673954e-38
2.603544 -0.78883773 0.28934145 1.6872495e-38
4.7817974 -0.70850331 0.20698589 1.1801785e-38
4.8385234 -0.71689349 0.21406914 1.2632267e-38
4.9534578 -0.72678035 0.22157227 1.3646059e-38
5.0518255 -0.72630095 0.22596353 1.3093604e-38
5.1475263 -0.72756439 0.24415721 1.3279076e-38
5.2627368 -0.73367751 0.25920862 1.4017358e-38
5.3353305 -0.74788201 0.27298376 1.3648576e-38
5.4596663 -0.75685376 0.28355303 1.4940033e-38
5.5646853 -0.75493711 0.27832979 1.7798098e-38
5.6271882 -0.76881701 0.28415957 1.6415523e-38
2.562578 -0.6497007 0.24923024 1.3093199e-38
4.6627998 -0.65053034 0.21192381 1.5216263e-38
4.749475 -0.61269301 0.23102579 2.0381012e-38
4.8468885 -0.62166864 0.25453877 2.0473205e-38
4.9509778 -0.64264005 0.25762495 1.9827835e-38
5.0481758 -0.67060095 0.24945948 1.7983207e-38
5.1572104 -0.68507135 0.26325166 1.9550891e-38
5.2128725 -0.69341874 0.25944284 1.9826759e-38
2.5686374 -0.57492316 0.25059071 5.5331769e-39
2.6088963 -0.55528581 0.21172725 3.6892685e-39
4.2557888 -0.51224709 0.21214919 2.0289891e-38
4.3587551 -0.52257252 0.23491892 2.0658671e-38
4.451179 -0.53498995 0.25272456 2.0750868e-38
4.544744 -0.55061579 0.26557425 2.0750868e-38
4.6500058 -0.57920432 0.26228264 2.0750508e-38
4.7539158 -0.59236634 0.27889985 2.0843059e-38
3.961689 -0.41227475 0.20987131 2.0843059e-38
4.0530281 -0.42844275 0.22171737 2.084306e-38
4.1527028 -0.44264838 0.24105696 2.084306e-38
4.2478819 -0.45914635 0.25726137 2.0935256e-38
4.340704 -0.4699164 0.27736077 2.0935258e-38
4.4279318 -0.48838663 0.28910294 2.0935258e-38
3.5944617 -0.30959907 0.20226099 2.0658669e-38
3.6679103 -0.31307253 0.21945572 2.0750506e-38
3.7553451 -0.32149947 0.24434541 2.0842702e-38
3.8530793 -0.35010386 0.23904347 2.0934896e-38
3.9462743 -0.3660298 0.25187489 2.0935256e-38
4.043674 -0.37587607 0.27157709 2.0843062e-38
4.1325803 -0.38800538 0.28769788 2.0843062e-38
2.9769206 -0.20487256 0.20403019 2.0749791e-38
3.0699859 -0.2157063 0.21040939 2.0841987e-38
3.1509933 -0.2259616 0.21458189 2.0841986e-38
3.2565162 -0.23727922 0.22552295 2.075015e-38
3.3561494 -0.24711677 0.23836038 2.0657955e-38
3.4624257 -0.25716177 0.26177496 2.0657955e-38
3.5537231 -0.27238026 0.26335916 2.0658313e-38
3.6422312 -0.28898489 0.26189512 2.0750149e-38
3.7154167 -0.29500505 0.2876825 2.0842343e-38
2.4821758 -0.12786783 0.20472199 2.0473207e-38
2.5483787 -0.1423403 0.20910716 2.0473926e-38
2.6210179 -0.15728316 0.21091861 2.0565763e-38
2.8875711 -0.19455773 0.20414203 2.0749791e-38
1.4822475 -0.060817461 0.26285371 4.7041407e-39
1.5265011 -0.026658781 0.2470922 1.3840163e-39
1.5772984 0.026515283 0.2418389 1.3843778e-39
1.6147925 0.069510147 0.25521463 1.8460804e-39
1.3666123 0.17778365 0.22635947 1.0152351e-39
1.4353801 0.14392029 0.22507021 1.199625e-39
1.5667464 0.12527253 0.23080245 1.7535232e-39
1.6259087 0.11931831 0.27276665 2.399257e-39
1.2764602 0.27696413 0.24054763 1.3836561e-39
1.3251833 0.23348632 0.23875217 1.3840177e-39
1.4085528 0.25664249 0.29872265 5.5751921e-40
1.236176 0.35002396 0.24722983 1.3836547e-39
1.1768218 0.47540882 0.25697023 1.2918164e-39
1.2160844 0.43260533 0.2399527 1.2914591e-39
1.1711248 0.5443995 0.24713314 2.7730435e-40
1.2018794 0.59588963 0.28205949 9.3271827e-41
1.1988873 0.6026113 0.21990795 1.0761972e-42
1.2230016 0.6414547 0.24845755 2.7766169e-40
1.284919 0.71150583 0.24230194 6.086694e-39
1.3727589 0.77499616 0.26322511 9.8663505e-39
1.4030114 0.79774719 0.28995886 6.7313404e-39
1.3953965 0.80720907 0.22232506 1.1340759e-38
