# .PCD v0.7 - Point Cloud Data file format
VERSION 0.7
FIELDS x y z rgb
SIZE 4 4 4 4
TYPE F F F F
COUNT 1 1 1 1
WIDTH 1066
HEIGHT 1
VIEWPOINT 0 0 0 1 0 0 0
POINTS 1066
DATA ascii
3.0023763 1.6944342 0.51199019 9.773429e-39
2.9829919 1.7777448 0.57289726 9.3984864e-39
3.0115724 1.7523584 0.54126215 9.0326017e-39
2.8884325 1.8904969 0.55171698 1.2442003e-38
2.9339361 1.8380058 0.54805207 1.0134595e-38
3.0047448 1.8019726 0.50632685 1.0040964e-38
2.8704684 1.9185442 0.54915899 1.9080806e-38
2.922915 1.9767715 0.54927689 1.4010048e-38
2.9822967 2.0322115 0.5470373 1.2995898e-38
3.0162287 2.0745089 0.55190933 1.2166862e-38
3.0664217 2.1268067 0.5502395 1.1430386e-38
3.12286 2.1791737 0.54875028 9.5864888e-39
2.7995505 2.2992775 0.59776109 1.0879732e-38
2.8839536 2.2898569 0.57467306 9.6811899e-39
2.9438729 2.2803376 0.55157745 9.1276602e-39
3.0544603 2.2830889 0.54969156 6.7309536e-39
3.1469884 2.2540832 0.54874641 6.177791e-39
2.6816306 2.3945224 0.56990457 3.7807089e-39
2.7764993 2.3892808 0.57445163 5.5295335e-39
2.8339491 2.338547 0.54824322 9.9563391e-39
2.9194376 2.3099773 0.50867397 9.5886328e-39
2.6811004 2.4179235 0.55007505 4.6111912e-39
2.7529018 2.411535 0.54350847 5.161837e-39
2.8310676 2.4033217 0.50776035 5.8061106e-39
2.3527105 -2.0380859 0.65257585 2.1394431e-38
2.4036548 -2.0032768 0.6954748 2.1025652e-38
2.3810022 -1.9760318 0.63170296 2.0656157e-38
2.4401736 -1.9339998 0.65665954 2.0010796e-38
2.5528688 -1.9072599 0.66798753 1.8627864e-38
2.6455514 -1.9282006 0.65042943 1.2819168e-38
2.4827421 -1.892905 0.62184066 1.9088125e-38
2.5273716 -1.8854264 0.65175116 1.8258723e-38
2.622283 -1.8503615 0.65224224 4.9821892e-39
2.5937657 -1.796676 0.61141133 1.4384339e-38
2.630815 -1.7533348 0.64856851 1.585946e-38
2.668684 -1.6866349 0.65255451 1.1525519e-38
2.7483711 -1.6564542 0.6495434 1.0695027e-38
2.8470881 -1.6371605 0.64961004 1.0326601e-38
2.9422457 -1.6190453 0.65083754 9.5893937e-39
3.0416994 -1.6068212 0.6506145 8.574883e-39
3.1486361 -1.6305659 0.64970231 7.4681795e-39
3.2513123 -1.6511052 0.64853877 6.4536689e-39
3.3218648 -1.6358306 0.6487906 5.2536893e-39
2.976064 -1.5998503 0.61266673 9.3128068e-39
3.292767 -1.527354 0.64978719 4.790549e-39
3.3058884 -1.5746334 0.65082157 4.6994366e-39
3.1711087 -1.416731 0.64214015 7.2787324e-39
3.254009 -1.4724555 0.65205991 5.4351883e-39
3.0925333 -1.3262714 0.67736101 9.8591212e-39
3.1213284 -1.3392715 0.63705575 8.938974e-39
3.0969946 -1.2973504 0.69179982 8.3847128e-39
3.1657128 -1.2800529 0.65702587 7.1869053e-39
3.217365 -1.2332602 0.64683515 6.5437051e-39
3.1955037 -1.1144176 0.66348016 9.1230429e-39
3.2121522 -1.1564729 0.64710718 1.0139003e-38
3.0994139 -1.0002704 0.61483896 1.0785043e-38
3.1442041 -1.0486436 0.65152937 8.3868988e-39
3.0939095 -0.98786098 0.61847991 7.3730874e-39
3.1460724 -0.94888264 0.65038651 6.1738352e-39
3.1675251 -0.85094935 0.64753401 5.436989e-39
3.1405551 -0.74941134 0.6486882 5.9916019e-39
3.0952985 -0.64314955 0.65375209 1.1521871e-38
3.1197827 -0.64489043 0.64754051 7.2812477e-39
3.1757286 -0.56160522 0.63897693 8.8482105e-39
3.2204924 -0.53936958 0.65559167 5.8054086e-39
3.1793108 -0.43631631 0.64293826 8.2943305e-39
3.2121351 -0.47924653 0.65911627 6.4507808e-39
3.0900977 -0.30611047 0.62072271 1.2351636e-38
3.1357598 -0.3542451 0.65160525 6.6348077e-39
3.0911956 -0.27936438 0.61264199 1.5394085e-38
3.1364427 -0.2486686 0.6554991 1.0881199e-38
3.1805694 -0.15911706 0.6462853 1.0052893e-38
3.2074015 -0.12504943 0.66678905 9.0405583e-39
3.1819041 -0.027453061 0.64385915 1.1712777e-38
3.2172666 -0.06296435 0.6606108 8.3951861e-39
3.071388 0.072712064 0.6509093 1.595086e-38
3.1385 0.022306079 0.64946532 1.033201e-38
3.0934267 0.10592753 0.65481216 1.3366124e-38
3.1606867 0.14520997 0.6480149 1.3919657e-38
3.2067239 0.18853396 0.65900636 1.5394787e-38
3.2442694 0.24901105 0.64839643 1.484089e-38
3.1975789 0.39808726 0.60663402 1.3456516e-38
3.2512207 0.3516441 0.6488027 1.4010771e-38
2.9714558 0.47941706 0.64800721 1.9449598e-38
3.0412574 0.46143082 0.6520859 1.1613325e-38
3.1631002 0.43822452 0.64700377 1.2442727e-38
3.2103484 0.40865508 0.67613095 1.3272488e-38
2.9807799 0.51697689 0.64099264 7.648224e-39
3.0171673 0.56610453 0.65241522 7.6478666e-39
3.0501893 0.64366937 0.64591277 9.584335e-39
3.1100392 0.68824255 0.6836009 7.2787296e-39
3.0813735 0.71516037 0.61417031 1.0782158e-38
3.1383188 0.75805533 0.65533781 7.0025e-39
2.982672 0.85789329 0.64707404 1.484272e-38
3.0416198 0.85367513 0.64684349 9.5857713e-39
3.1278203 0.82215941 0.6555199 6.8181032e-39
3.0550678 0.94939578 0.64805251 1.2632224e-38
3.1034794 0.99528122 0.69511741 1.1432594e-38
3.0902979 1.0092832 0.63725132 1.3278317e-38
3.136292 1.0535928 0.65265137 1.2816618e-38
3.0626216 1.187816 0.64983588 1.3831466e-38
3.1595638 1.1746233 0.64225256 1.198684e-38
3.2213202 1.152411 0.6532715 1.1433313e-38
2.9666371 1.2273796 0.65207541 1.133676e-38
3.0179768 1.2418905 0.64812541 1.032442e-38
3.222347 1.2007455 0.69733429 1.0142563e-38
3.0501041 1.3523039 0.65250462 6.5408002e-39
3.0820155 1.4416374 0.65762353 5.9876306e-39
3.1064007 1.4844159 0.63044864 6.0798235e-39
2.9542007 1.5585088 0.65048945 1.1428582e-38
3.0534558 1.5234932 0.65602183 7.0021315e-39
3.1078365 1.5129876 0.62968349 5.9876264e-39
2.9519212 1.6503686 0.65104306 8.2028383e-39
2.9717243 1.7574666 0.64422381 8.3872337e-39
2.8800728 1.8618622 0.65246826 1.2262693e-38
2.9228346 1.8166175 0.64787686 1.0046385e-38
2.8771536 1.9286631 0.6552707 1.936208e-38
2.9174862 1.9803323 0.65447724 1.7055026e-38
2.3345773 2.0982983 0.67890877 1.5218002e-38
2.8990834 2.0067 0.69847894 1.8444115e-38
2.9521444 2.0408888 0.67018324 1.6687693e-38
3.0158601 2.0768561 0.63156825 1.364307e-38
2.3624287 2.1163006 0.67883408 1.1990437e-38
2.452935 2.144109 0.6824432 1.1159226e-38
2.5423729 2.1699998 0.6855278 1.1896056e-38
2.6473215 2.1882536 0.69737047 4.6122702e-39
2.7582331 2.1804826 0.68335563 4.7963083e-39
2.8453591 2.1790555 0.67443049 5.4416735e-39
2.9441147 2.1799619 0.68695831 7.5628877e-39
3.049814 2.140651 0.66146976 1.2077563e-38
3.1220942 2.1811173 0.64802349 9.4953651e-39
2.4813242 2.2217827 0.67536515 4.4282405e-39
2.5545483 2.243541 0.67798239 8.0224071e-39
2.6596346 2.2602477 0.67494595 8.2975464e-39
2.7552748 2.2579663 0.66667968 1.0696439e-38
2.8463821 2.2533226 0.63054585 8.2989898e-39
2.9510164 2.2402558 0.63547826 6.5472826e-39
3.0532775 2.2506001 0.64528698 4.9799723e-39
3.1493418 2.2434371 0.64795995 7.0075503e-39
2.5741155 2.3242583 0.68231887 4.335333e-39
2.650943 2.3522904 0.65009791 5.2558333e-39
2.7479758 2.3471282 0.62255758 7.1901255e-39
2.8175347 2.3321021 0.61135757 9.3113312e-39
2.6613073 2.4145496 0.61771953 4.8888613e-39
2.3844607 -2.1113667 0.73801786 2.2498252e-38
2.4218788 -2.1263626 0.78175038 2.2590447e-38
2.3827081 -2.0625715 0.7207945 2.1854684e-38
2.4317644 -2.0391345 0.76024204 2.1394431e-38
2.4664257 -1.9601527 0.74260378 2.0288099e-38
2.5155702 -1.9142028 0.75183296 1.9365791e-38
2.6448472 -1.9166309 0.74792778 1.2728412e-38
2.5417109 -1.8918936 0.75359106 1.8812977e-38
2.6451187 -1.8495163 0.75113428 7.7466077e-39
2.6442244 -1.7522471 0.74958837 1.5675068e-38
2.6669514 -1.6801705 0.74996489 1.2354922e-38
2.749933 -1.6508758 0.74911821 1.041844e-38
2.8419228 -1.6325684 0.74959546 9.773429e-39
2.9519289 -1.625421 0.749026 9.4050038e-39
3.0420036 -1.6068348 0.75225431 8.66708e-39
3.1485262 -1.6261586 0.75155991 7.6522107e-39
3.2526364 -1.6460017 0.7516644 6.4533101e-39
3.321461 -1.6319641 0.74786049 5.345885e-39
3.2963955 -1.5137852 0.74358821 4.9756577e-39
3.3086717 -1.5620027 0.75297374 4.6994366e-39
3.1821599 -1.4085171 0.74504769 7.186534e-39
3.2653098 -1.4678065 0.75164998 5.4355485e-39
3.0880075 -1.3224251 0.7482053 9.4917778e-39
3.1238859 -1.368785 0.74974191 1.0228984e-38
3.092061 -1.2936687 0.75247532 7.7404224e-39
3.1413085 -1.2756282 0.74840623 5.9890754e-39
3.2453432 -1.2419754 0.75326246 3.3168595e-39
3.1949642 -1.108565 0.73921692 2.9484441e-39
3.2267375 -1.1561091 0.75220895 2.9484441e-39
3.0995092 -1.002537 0.72217423 7.2808988e-39
3.1529894 -1.052225 0.75016201 3.4086992e-39
3.1489494 -0.95758021 0.74904895 1.0234762e-38
3.2257724 -0.91553247 0.77485996 8.3923022e-39
3.1818857 -0.8427183 0.73501951 5.4391526e-39
3.2107415 -0.86767137 0.77519292 6.0852409e-39
3.1419802 -0.74857831 0.74881959 7.652205e-39
3.0973058 -0.63960993 0.73153239 1.1800262e-38
3.1173751 -0.64613074 0.75236714 8.849658e-39
3.1714869 -0.5952782 0.74498272 7.5567486e-39
3.2333968 -0.54831862 0.75100148 5.0674848e-39
3.1791558 -0.42581457 0.75314522 5.3444304e-39
3.2173522 -0.47444835 0.7485497 4.1455313e-39
3.1337135 -0.35037374 0.75040823 4.2380885e-39
3.1672208 -0.25506923 0.74931014 1.0512781e-38
3.2021637 -0.221376 0.76765352 7.8412766e-39
3.1878719 -0.14847127 0.75205058 5.446714e-39
3.2005422 -0.17489131 0.71148556 6.0009668e-39
3.1767237 -0.051788636 0.75492269 5.3538121e-39
3.2082548 -0.04934394 0.7200458 3.1414771e-39
3.048388 0.075010911 0.74633944 1.5120017e-38
3.1311777 0.023679998 0.75185317 7.0118859e-39
3.0585909 0.1149809 0.76274592 1.4104052e-38
3.1541402 0.15692098 0.74947602 1.3550881e-38
3.2075927 0.19110243 0.7308386 1.4472835e-38
3.191278 0.21027157 0.79361707 1.3735638e-38
3.2608116 0.23589315 0.75272787 1.3457965e-38
3.3103828 0.27882442 0.75554377 1.3273931e-38
3.2758656 0.36957592 0.7416383 1.2997345e-38
3.3110068 0.32559782 0.762353 1.2721119e-38
2.9836559 0.48679513 0.74626386 2.0833609e-38
3.0445757 0.47126576 0.75231576 1.3826744e-38
3.1607478 0.4593327 0.74693352 1.1613694e-38
3.2259085 0.42414695 0.75491101 1.2812596e-38
2.9740653 0.50973612 0.74924463 8.2013893e-39
3.036808 0.56223893 0.75092071 5.8954294e-39
3.0746419 0.63925868 0.75432986 5.8028778e-39
3.1093025 0.68799961 0.73915499 5.8950763e-39
3.1339109 0.750723 0.75044423 5.527014e-39
2.9887431 0.86361825 0.74831051 1.4656514e-38
3.0416789 0.85896796 0.75368077 8.0177253e-39
3.1341331 0.82729447 0.74932981 5.3426228e-39
3.0572536 0.94392294 0.75251526 8.3876009e-39
3.105881 0.99328691 0.73169553 8.2042998e-39
3.0955083 1.0016567 0.79939312 1.2992035e-38
3.153635 1.04545 0.75033146 8.7571205e-39
3.2056832 1.0964251 0.75666231 8.0195526e-39
2.9957376 1.1996619 0.7723859 1.2167962e-38
3.0524983 1.1896384 0.74974722 1.0970151e-38
3.1545982 1.1768502 0.76952612 8.2032054e-39
3.2334259 1.1525927 0.74963808 7.9269885e-39
2.970907 1.2395433 0.75456965 1.0045661e-38
3.0095744 1.2350695 0.73380417 9.862361e-39
3.1893005 1.200708 0.72776741 1.0050003e-38
3.2310026 1.2042117 0.72199088 8.9436543e-39
2.9930897 1.326776 0.79140151 6.9095757e-39
3.0212121 1.3541156 0.74700767 5.7110367e-39
3.044312 1.4505975 0.75197542 5.4344512e-39
2.9514265 1.5610206 0.74969727 9.954544e-39
3.0355098 1.5193853 0.74767911 5.527007e-39
2.9466205 1.6447192 0.74846321 1.0784712e-38
2.9901831 1.7468157 0.73031878 9.8620527e-39
3.0155759 1.7686759 0.76738888 9.9556959e-39
2.880322 1.8748711 0.73525131 9.6804893e-39
2.9505191 1.8365219 0.75337237 6.7291613e-39
3.0035913 1.8038796 0.7792173 7.5596409e-39
2.8825634 1.9526956 0.75105107 1.9271702e-38
2.906188 1.9126986 0.79548019 1.78873e-38
2.8779056 2.0559173 0.75647676 1.8351926e-38
2.9070418 2.0694938 0.70607334 1.8352285e-38
2.3705719 2.1193132 0.7341662 6.1806819e-39
2.4471383 2.1230001 0.73926741 8.5777655e-39
2.5544567 2.1436687 0.75653511 1.2727281e-38
2.6510789 2.1476941 0.75215483 1.2911672e-38
2.7473433 2.1435697 0.74811745 1.3649238e-38
2.8407621 2.1359496 0.74237072 1.5493866e-38
2.9427948 2.1593337 0.71443516 1.2727279e-38
3.0346045 2.1803722 0.70741725 9.9606873e-39
2.6770053 2.234967 0.70063573 1.4845594e-38
2.7116368 2.2427218 0.700261 1.71494e-38
3.0821745 2.2092767 0.70700943 8.1156957e-39
3.1259668 2.2242327 0.70464617 9.2220433e-39
2.4914258 -2.209415 0.87254691 2.3142183e-38
2.5052373 -2.2132792 0.89330733 2.3050347e-38
2.4729607 -2.1454945 0.83931702 2.2590449e-38
2.5100231 -2.1421022 0.8862747 2.2223107e-38
2.4841688 -2.0579033 0.821787 2.1394432e-38
2.5177593 -2.0462573 0.86763012 2.1026014e-38
2.4958177 -1.9843022 0.80559599 2.0472489e-38
2.5239186 -1.9449049 0.85097194 1.9918963e-38
2.6486647 -1.908711 0.84910518 1.3281597e-38
2.5649195 -1.89384 0.84838319 1.8812621e-38
2.6591482 -1.8556855 0.85134536 9.1309981e-39
2.651433 -1.747923 0.85123986 1.4937503e-38
2.6749189 -1.6800082 0.8479653 1.152516e-38
2.7520821 -1.6523668 0.84956336 1.014257e-38
2.8413458 -1.631821 0.85194731 9.4971994e-39
2.9544735 -1.6290218 0.84875441 9.3128096e-39
3.0420809 -1.6079031 0.85212654 8.4826902e-39
3.1499898 -1.6191324 0.85226828 7.2834295e-39
3.2574408 -1.6332656 0.85297662 6.2685587e-39
3.3148208 -1.6198481 0.84274459 5.4380806e-39
3.2987182 -1.5041139 0.81991953 4.975299e-39
3.3085706 -1.552168 0.85119057 4.8841866e-39
3.1923804 -1.4021684 0.83363473 7.0021427e-39
3.2718019 -1.4617891 0.85039163 5.4362701e-39
3.3007224 -1.4961843 0.88929284 5.4366359e-39
3.0899599 -1.314569 0.83978814 9.1229981e-39
3.1317968 -1.3549744 0.85562634 9.4914247e-39
3.2030852 -1.3987848 0.89648861 7.0032329e-39
3.0927315 -1.2934883 0.83655179 7.5556724e-39
3.1436014 -1.2795022 0.85134327 5.8972399e-39
3.24611 -1.2447845 0.85074377 3.2243037e-39
3.1971505 -1.1080287 0.85946411 1.749182e-39
3.2244744 -1.156278 0.84970957 2.5789413e-39
3.162257 -1.0538229 0.85067213 2.4867429e-39
3.1442585 -0.95849252 0.85036755 1.0879414e-38
3.2443969 -0.91864038 0.8535434 7.7465741e-39
3.1965508 -0.80514157 0.81062973 7.2837897e-39
3.2264702 -0.85229808 0.85349441 5.0703785e-39
3.1753142 -0.74597454 0.85046655 5.7157591e-39
3.2036233 -0.79570538 0.87228942 4.8852796e-39
3.139025 -0.64427096 0.84925503 8.1110182e-39
3.1881361 -0.55480045 0.86898494 4.7901748e-39
3.2173228 -0.55329329 0.84382629 3.868227e-39
3.1758218 -0.44529828 0.85461968 3.6834756e-39
3.2075586 -0.48581582 0.8209402 3.6841986e-39
3.1331136 -0.35113236 0.84992617 3.5916401e-39
3.0980053 -0.24300151 0.89203143 6.5451204e-39
3.1422198 -0.25091469 0.85024154 8.5734327e-39
3.138073 -0.1511898 0.84928805 6.1774393e-39
3.1682966 -0.055579592 0.84166753 7.8384236e-39
3.2123146 -0.042149592 0.88563198 1.9267469e-38
3.0433898 0.081833705 0.84878451 1.4750873e-38
3.1484613 0.032475397 0.85230041 6.5469449e-39
2.9944172 0.11133584 0.82615125 1.6317839e-38
3.0475361 0.1367211 0.84716922 1.5213661e-38
3.1245916 0.18388858 0.84154093 1.4292788e-38
3.1639624 0.23256111 0.85580355 1.4754133e-38
3.2380588 0.27466989 0.83695477 1.4566852e-38
3.302156 0.29677325 0.80273616 1.465723e-38
3.2727768 0.35506716 0.85980058 1.4292074e-38
3.3060114 0.33831537 0.82433927 1.3459053e-38
2.9860387 0.49469766 0.83195066 2.1019803e-38
3.0423417 0.48484465 0.84879375 1.7149035e-38
3.1535764 0.46947089 0.85489303 1.0328745e-38
3.2490742 0.43128723 0.85403192 1.2539994e-38
2.9847283 0.53941572 0.86397964 1.1615146e-38
3.0239174 0.56454229 0.83881068 7.5556654e-39
3.0521574 0.65008903 0.85013425 7.9244437e-39
3.1011968 0.69926667 0.80309856 5.8028736e-39
3.0746055 0.74720907 0.86579025 7.9244437e-39
3.1096456 0.75685775 0.81991726 5.9872649e-39
2.9964864 0.87030059 0.81921649 1.5486994e-38
3.0510104 0.8505196 0.85527617 1.0230775e-38
3.1127148 0.82213503 0.82145488 5.7103235e-39
3.0429678 0.94795662 0.84826469 1.1892098e-38
3.0904474 1.0179597 0.86675292 1.2722582e-38
3.1330492 1.0644517 0.84334981 1.5117908e-38
3.0804188 1.1812645 0.85560226 1.2074681e-38
3.129216 1.1346891 0.84260798 1.0415894e-38
3.207191 1.1187658 0.80047309 9.1259072e-39
2.9587445 1.2522831 0.85079128 1.0323692e-38
3.0333667 1.2097126 0.8564356 1.2074319e-38
2.9653201 1.3491025 0.84953254 8.6645339e-39
3.0006599 1.3887086 0.8008728 7.0024902e-39
2.9677324 1.4489756 0.86091965 9.3109837e-39
3.0078831 1.460786 0.81205016 7.0950432e-39
2.9610536 1.5471995 0.84897596 1.1155252e-38
3.01018 1.5156205 0.81092387 6.8188178e-39
2.9731982 1.6416137 0.8414973 1.4659757e-38
3.0109141 1.6744473 0.88186133 1.5031437e-38
2.9938886 1.772827 0.87865657 1.687572e-38
3.0122793 1.7503612 0.84871495 1.5859027e-38
2.9572916 1.8554658 0.85407263 1.7888774e-38
3.0097148 1.818023 0.82669497 1.3554131e-38
2.8818817 1.9605347 0.85168004 1.7890586e-38
2.9106927 1.9136152 0.84763956 1.8718535e-38
2.7904928 2.0949891 0.88023978 1.7061191e-38
2.848392 2.0545156 0.84941864 1.7521809e-38
2.4737225 2.1922128 0.80296504 1.659985e-38
2.5687463 2.1723869 0.82700622 1.6784242e-38
2.6483979 2.1478579 0.8528465 1.6876437e-38
2.7481329 2.1172466 0.85000908 1.724594e-38
2.8108304 2.104423 0.82000726 1.7798755e-38
2.4808323 2.223238 0.81602752 1.6508015e-38
2.5658326 2.2453108 0.86356521 1.6323263e-38
2.6048017 2.2059846 0.89128196 1.6138874e-38
2.5699344 2.3153434 0.8814978 1.5954842e-38
2.6187115 -2.3191297 0.99235821 2.268229e-38
2.5429518 -2.2312911 0.93819654 2.2866677e-38
2.6260791 -2.2487724 0.98853117 2.2130917e-38
2.5484419 -2.1548419 0.93101245 2.2039439e-38
2.6272786 -2.1521947 0.98463047 2.0564325e-38
2.5591497 -2.0466795 0.94434059 2.1577747e-38
2.6029036 -2.0886045 0.98855376 2.0838031e-38
2.5642645 -1.9446561 0.94932961 2.1300087e-38
2.6400435 -1.9044327 0.94408953 1.6784673e-38
2.4742174 -1.8023704 0.9994365 1.0970198e-38
2.5697336 -1.858825 0.97074085 1.3831162e-38
2.6446798 -1.8583673 0.9486708 1.2911018e-38
2.461221 -1.7709849 0.99555445 8.2043237e-39
2.558234 -1.7650217 0.99069643 8.9415258e-39
2.6428816 -1.745874 0.95176244 9.6805383e-39
2.6793044 -1.6814476 0.95283467 1.0049303e-38
2.7500215 -1.6541861 0.94980103 9.9574615e-39
2.8423274 -1.6306751 0.9516651 9.3120907e-39
2.9544222 -1.6249374 0.94991243 8.851114e-39
3.0368185 -1.6060572 0.94335401 8.1135503e-39
3.1517055 -1.6065549 0.93456262 7.2834309e-39
3.2507517 -1.6104485 0.94007343 6.4533115e-39
3.3048015 -1.6061978 0.90916181 5.5302762e-39
3.0714741 -1.5966821 0.97749418 7.8369634e-39
3.1413553 -1.5964262 0.98275304 7.3759853e-39
3.2846081 -1.5824525 0.980142 6.2692804e-39
3.3050947 -1.5443699 0.94417185 5.5306364e-39
3.2708101 -1.4461567 0.9550758 5.6221061e-39
3.3028669 -1.4896917 0.94639689 5.161851e-39
3.1405277 -1.3343312 0.94946003 8.5698299e-39
3.2103915 -1.3924556 0.95876068 7.1879843e-39
3.1567125 -1.2862896 0.94759035 5.1585986e-39
3.2261372 -1.2423347 0.94922674 3.0384705e-39
3.1962056 -1.1131037 0.96118826 3.6827595e-39
3.2139666 -1.1611937 0.94979972 3.0381118e-39
3.1676655 -1.0510966 0.95066893 3.5909226e-39
3.1601417 -0.94750488 0.94994164 7.9251836e-39
3.2091439 -0.90677685 0.91716844 5.1622084e-39
3.1986651 -0.89663219 0.99308044 6.8181186e-39
3.2162657 -0.85235059 0.95068091 5.8054212e-39
3.1890974 -0.74800515 0.91296685 1.3087842e-38
3.2268844 -0.75403547 0.96159047 1.1797093e-38
3.171725 -0.64306873 0.94112486 8.2950507e-39
3.2087264 -0.67156911 0.98299283 7.3731028e-39
3.1873524 -0.54933614 0.95033383 4.9734787e-39
3.2036719 -0.56773341 0.93356669 4.0522497e-39
3.1677299 -0.4506036 0.946163 5.8025205e-39
3.0916586 -0.3182759 0.98371845 1.3274669e-38
3.1282687 -0.35375789 0.94500786 7.1865325e-39
3.060046 -0.24470671 0.95440859 1.0325138e-38
3.1047542 -0.2640973 0.91444713 7.1886948e-39
3.0576599 -0.15441264 0.9576211 1.2723307e-38
3.1120288 -0.13286273 0.92049348 8.1117357e-39
3.0859945 -0.058931664 0.99031144 1.4569393e-38
3.1558533 -0.049698025 0.95163691 1.1800999e-38
3.2135446 -0.040731952 0.91234803 1.4105968e-38
3.0683193 0.083725907 0.93479025 1.650259e-38
3.1433568 0.03976661 0.95624822 1.2078299e-38
3.0720651 0.12708388 0.93412542 1.6228178e-38
3.1245718 0.16538818 0.95968157 1.5031094e-38
3.1720142 0.23603742 0.94937938 1.5215847e-38
3.2135017 0.28732985 0.95277232 1.5492432e-38
3.2542663 0.35166422 0.95181924 1.5676822e-38
3.0678155 0.49445388 0.92155492 1.8995109e-38
3.1658432 0.47356647 0.95241976 1.5954121e-38
3.2288508 0.42396629 0.94957775 1.5953766e-38
2.9938989 0.57416224 0.95177537 1.0781813e-38
3.0464313 0.54812628 0.950073 1.6504412e-38
3.1116312 0.51518393 0.98328727 1.5584984e-38
3.0498586 0.652215 0.95002246 1.253964e-38
3.07618 0.75139785 0.95374721 1.2816576e-38
3.0828259 0.84070855 0.94226217 1.2631833e-38
3.1106567 0.87486041 0.97875959 1.2266663e-38
3.0766044 0.94936776 0.91625875 1.9820541e-38
3.1166055 0.95310962 0.96860206 1.2726925e-38
3.093426 1.0454293 0.94910645 1.2541087e-38
3.1064725 1.0552169 0.95181119 1.6966101e-38
3.0779812 1.154881 0.93642247 1.0235474e-38
3.1071985 1.1325097 0.95997399 1.5583528e-38
2.9466219 1.2578903 0.94529992 6.1788812e-39
3.0441017 1.2217115 0.95389891 9.7752213e-39
3.1039691 1.2063996 0.99363476 1.0605342e-38
2.9524648 1.3473643 0.94685423 7.5632506e-39
2.9469459 1.4504329 0.94447285 6.9164491e-39
3.0035517 1.4229394 0.99427247 1.4939979e-38
2.9493237 1.5501039 0.94556034 8.9461865e-39
2.9920385 1.6409677 0.97089607 1.2451053e-38
3.0083055 1.6687572 0.94187677 1.5955204e-38
2.978148 1.7558242 0.95502985 1.6783887e-38
3.0036669 1.7127001 0.9205569 1.6784606e-38
2.8986237 1.8972375 0.98774379 1.6230713e-38
2.930562 1.8481923 0.94835758 1.6783887e-38
2.8824811 1.9519631 0.95077491 1.6599854e-38
2.9034011 1.9067352 0.92052543 1.687644e-38
2.7931066 2.0951858 0.91252255 1.6692407e-38
2.8438549 2.0524242 0.94872075 1.6507657e-38
2.6686766 2.1773865 0.92312121 1.6046678e-38
2.7519796 2.1442423 0.94956827 1.6046678e-38
2.8111241 2.1147995 0.98284042 1.5862647e-38
2.5923154 2.2697947 0.91026282 1.5770092e-38
2.6441867 2.2451808 0.94768023 1.5401308e-38
2.7143965 2.224956 0.98941153 1.5124722e-38
2.5911052 2.3240693 0.91466743 1.5677897e-38
2.6364288 2.34094 0.96633583 1.4848136e-38
2.655153 2.4090712 0.98988801 1.4387159e-38
2.5878427 -2.3023913 1.0528306 1.5492501e-38
2.6680343 -2.3345206 1.0432173 1.6691044e-38
2.7055616 -2.3155737 1.0398496 1.6782882e-38
2.4919853 -2.2099087 1.040192 1.466274e-38
2.561136 -2.2351999 1.0508845 1.5031881e-38
2.6577747 -2.2543104 1.0522718 1.632298e-38
2.715338 -2.2475977 1.0476143 1.6322983e-38
2.382396 -2.1093636 1.0320247 1.4109564e-38
2.4555779 -2.133431 1.0452533 1.4386152e-38
2.5547466 -2.144289 1.0744327 1.4754214e-38
2.645009 -2.1555579 1.0719491 1.5860199e-38
2.7104123 -2.18769 1.0559162 1.6321897e-38
2.2819245 -2.0163274 1.0330917 1.3648224e-38
2.3531601 -2.0500758 1.0444946 1.3924452e-38
2.4458981 -2.0626609 1.0696231 1.420032e-38
2.574729 -2.0410447 1.0502056 2.0744748e-38
2.6093645 -2.0775549 1.0398288 2.1759259e-38
2.1777558 -1.9188297 1.018433 1.4384701e-38
2.2513251 -1.9508522 1.0296671 1.3277999e-38
2.3510048 -1.9347638 1.0481761 1.2999602e-38
2.4348197 -1.941394 1.0432451 1.3184358e-38
2.5656445 -1.9582655 1.0198017 2.2312428e-38
2.0698957 -1.8235259 1.0334324 1.0690374e-38
2.1444077 -1.8434349 1.0168219 1.2260951e-38
2.2518609 -1.856186 1.0317259 1.1707411e-38
2.3607185 -1.8510917 1.028282 1.2075834e-38
2.4489348 -1.855882 1.0108881 1.2721928e-38
2.5258262 -1.8524785 1.0034509 1.2538976e-38
2.0631101 -1.7764542 1.0680945 1.7853148e-38
2.1480553 -1.7478898 1.0565951 1.4087176e-38
2.2483821 -1.7404876 1.0489231 1.1333193e-38
2.3541644 -1.7421411 1.0475633 1.0415201e-38
2.443665 -1.7289639 1.0404302 1.0140414e-38
2.5493302 -1.7202971 1.0453784 9.9570972e-39
2.6251004 -1.7106301 1.0355359 9.5890335e-39
2.1878135 -1.6979532 1.0962229 1.1422504e-38
2.2488663 -1.6953675 1.0929109 1.0872208e-38
2.3028402 -1.6977779 1.0963469 1.0413031e-38
2.4513502 -1.6983501 1.0954397 1.0232602e-38
2.5958846 -1.6991094 1.0985433 9.5883119e-39
2.6665652 -1.67981 1.055184 9.5886748e-39
2.7519703 -1.6498196 1.0500777 9.4961204e-39
2.8435476 -1.6249174 1.0508425 9.2198951e-39
2.9537983 -1.6156673 1.0504779 8.4823329e-39
3.0145912 -1.6042966 1.0367459 8.205746e-39
3.0563338 -1.5889516 1.0559562 7.8369649e-39
3.1475163 -1.5854644 1.0494974 7.2837911e-39
3.2750225 -1.5600034 1.0487952 6.0848906e-39
3.2790768 -1.4558314 1.0516437 5.7150276e-39
3.1766074 -1.3291148 1.0351803 8.5687509e-39
3.2174568 -1.3612671 1.0703816 7.6496869e-39
3.1881394 -1.2521832 1.0525815 6.6330112e-39
3.2084212 -1.2391088 1.0095989 4.6039857e-39
3.179431 -1.1476328 1.0583031 5.5277511e-39
3.2021885 -1.1524314 1.0375766 8.5665859e-39
3.1796129 -1.0511479 1.0582609 6.4504193e-39
3.2009227 -1.0893686 1.0507352 1.0411572e-38
3.1858671 -0.96306384 1.0307679 9.1226338e-39
3.2175086 -0.93993086 1.0712829 6.5429792e-39
3.1981084 -0.89496541 1.0083433 7.2783694e-39
3.2371664 -0.84901744 1.0493356 7.9259053e-39
3.2615604 -0.75158554 1.049996 8.5716348e-39
3.2523403 -0.65073133 1.052587 1.0138952e-38
3.2338307 -0.5490768 1.0529269 7.8344271e-39
3.1723166 -0.43078554 1.0485097 9.5890265e-39
3.2119622 -0.48082799 1.0491804 8.8503797e-39
3.093853 -0.31823754 1.0341117 1.2172672e-38
3.1197906 -0.3619628 1.0529166 1.0881572e-38
3.0640275 -0.24875382 1.0446868 1.0605346e-38
3.1054742 -0.2637459 1.0941718 1.217195e-38
3.0557284 -0.14880204 1.0450232 1.3278658e-38
3.0712767 -0.053035911 1.0397933 1.3094625e-38
3.1178451 -0.020520151 1.0859072 1.1619494e-38
3.0949776 0.0039428002 1.0280445 1.3924746e-38
3.1261787 0.051623289 1.0501128 1.3924746e-38
3.1592121 0.14928381 1.0508051 1.4201696e-38
3.2005334 0.19760299 1.0966265 1.4293892e-38
3.1862888 0.22577661 1.0325199 1.4754868e-38
3.2166367 0.26548696 1.0592613 1.475451e-38
3.2436216 0.35218659 1.0497001 1.512365e-38
3.1681092 0.47055233 1.0485271 1.5124007e-38
3.218941 0.42055416 1.0494586 1.5216205e-38
2.9873936 0.58740574 1.0224671 7.1019179e-39
3.0634077 0.56261271 1.0497626 1.4754508e-38
3.1176133 0.52041525 1.0543088 1.4754867e-38
2.9944992 0.60534459 1.0415971 8.4855699e-39
3.0630856 0.6547302 1.0491836 1.0790096e-38
3.101661 0.6953938 1.0632464 1.4569757e-38
3.0723262 0.74299276 1.0439744 1.5400217e-38
3.1033344 0.77218658 1.0926853 1.3833265e-38
3.0895495 0.81291962 1.0194407 1.6784222e-38
3.1177101 0.85626328 1.0548215 1.4939614e-38
3.0924134 0.98459691 1.0691845 1.1159962e-38
3.1227655 0.94652015 1.0463222 1.429425e-38
3.0952148 1.0161053 1.0411127 1.2542894e-38
3.1057107 1.0620772 1.0505079 1.4479e-38
3.1217265 1.1502166 1.0500058 1.3740717e-38
2.9761076 1.2735677 1.0446692 6.9175155e-39
3.0490253 1.2457613 1.0529077 9.2220489e-39
3.1162946 1.2191495 1.0559428 1.1803887e-38
2.9788489 1.3351226 1.0347311 6.4576177e-39
3.0168025 1.3700677 1.0725859 1.0237639e-38
2.989414 1.4786971 1.0465329 1.0697899e-38
3.0193274 1.4363596 1.0571097 1.2819119e-38
2.9881368 1.5513755 1.0514077 1.3279736e-38
3.0004497 1.5660847 1.0994927 1.429389e-38
2.9795649 1.6520927 1.0496832 1.4939976e-38
2.9478123 1.7498788 1.0480195 1.5492789e-38
2.8984382 1.8925041 1.0386063 1.5493148e-38
2.9123843 1.8429242 1.048525 1.5308757e-38
2.8891344 1.9509859 1.0428838 1.5400594e-38
2.90309 1.9314467 1.0929066 1.4478279e-38
2.8754404 2.0511618 1.0453575 1.521656e-38
2.9017639 2.0441384 1.09682 1.4294245e-38
2.780591 2.1796598 1.0126265 1.5124723e-38
2.8480084 2.1449459 1.0515112 1.4847777e-38
2.7606761 2.2544363 1.0300207 1.457119e-38
2.8289042 2.2425349 1.0767118 1.4110214e-38
2.6857297 2.3704765 1.010525 1.4294605e-38
2.751626 2.3539815 1.0535744 1.3925465e-38
2.809545 2.3263822 1.0918627 1.3924386e-38
2.68276 2.4232416 1.0234379 1.3925462e-38
2.7290082 2.4328833 1.0728207 1.3464486e-38
2.57289 -2.1153736 1.1001943 1.4568742e-38
2.0254033 -1.8019916 1.1030577 1.9416504e-38
2.0643632 -1.7654784 1.1127429 1.8033572e-38
2.1296546 -1.7290111 1.1296283 1.2516607e-38
2.3564692 -1.7014149 1.1025743 1.0507027e-38
2.5455186 -1.7009267 1.1029187 9.7723458e-39
2.1578252 -1.6731343 1.1407803 1.390314e-38
2.248805 -1.6825632 1.1465616 1.1054078e-38
2.351665 -1.6896949 1.150339 1.0505586e-38
2.4477592 -1.6862985 1.150686 1.0138966e-38
2.550983 -1.6866829 1.1511338 9.6794285e-39
2.6518862 -1.6693784 1.149152 9.4035633e-39
2.7524726 -1.6400061 1.1491559 9.2195336e-39
2.8392098 -1.6131964 1.1471159 8.7585582e-39
2.9520221 -1.6070451 1.1450949 8.205746e-39
3.0009537 -1.6005816 1.1169918 8.0213547e-39
2.8722937 -1.5982165 1.1899766 8.2975829e-39
2.974889 -1.5979229 1.1808026 7.7447678e-39
3.0441983 -1.5784849 1.1511031 7.7447678e-39
3.1462543 -1.5691149 1.1501667 7.191594e-39
3.2641706 -1.5502609 1.1486155 6.1770834e-39
3.2754781 -1.4534389 1.1521024 6.1770848e-39
3.1993186 -1.3002137 1.1031337 6.3622005e-39
3.2389443 -1.3502861 1.1513541 5.6242739e-39
3.1878242 -1.2348444 1.1457121 4.3335407e-39
3.2088501 -1.2829634 1.1565999 3.3193874e-39
3.1358147 -1.1458529 1.1483719 3.226833e-39
3.1457028 -1.0489101 1.149662 4.6094045e-39
3.1928692 -0.99050039 1.1543859 4.886346e-39
3.2253876 -0.94187593 1.1491303 4.7023176e-39
3.2690268 -0.85179698 1.1505429 5.8093827e-39
3.2842851 -0.75014293 1.1512723 8.1142692e-39
3.2816823 -0.65095901 1.1515549 8.2064648e-39
3.2436962 -0.54813194 1.1488997 3.7803669e-39
3.1825492 -0.42678079 1.1488713 8.1146251e-39
3.2184377 -0.47822997 1.1536573 2.4899855e-39
3.1739149 -0.35225692 1.1590874 8.6677961e-39
3.2001004 -0.30333185 1.1749616 7.4692543e-39
3.0920238 -0.21279971 1.101824 1.2356346e-38
3.151607 -0.25618178 1.1354177 1.0327676e-38
3.2124326 -0.25342262 1.184206 7.5614514e-39
3.0897269 -0.15024297 1.1010056 1.263293e-38
3.1456721 -0.15726204 1.1310177 1.1802446e-38
3.2377088 -0.15245338 1.1814506 8.5752417e-39
3.0942781 -0.0745553 1.1026274 1.2725123e-38
3.1580284 -0.039930515 1.1244162 1.1249634e-38
3.243849 -0.043279998 1.1767831 9.7745024e-39
3.162077 0.055056415 1.1214333 1.3278655e-38
3.2390459 0.049140468 1.1755364 1.1157798e-38
3.1860716 0.13609667 1.1213444 1.3740358e-38
3.2205513 0.16108495 1.1632329 1.327938e-38
3.2332175 0.24982011 1.1503259 1.4016586e-38
3.2407436 0.34994441 1.1495864 1.4293171e-38
3.1772051 0.4741652 1.1474324 1.4109139e-38
3.2154703 0.42429155 1.1517938 1.4201336e-38
3.0886006 0.58233452 1.1265053 1.3832914e-38
3.1275353 0.5402773 1.1539321 1.3832552e-38
3.0761297 0.65566117 1.1435101 1.0513514e-38
3.1074464 0.632837 1.1858528 1.3371935e-38
3.087312 0.71542549 1.1483552 9.3149718e-39
3.1162617 0.7680918 1.1518101 1.346449e-38
3.1266966 0.8511439 1.150254 1.3556328e-38
3.0972435 0.97337627 1.1106932 1.3925471e-38
3.1160798 0.94414067 1.1528989 1.2173034e-38
3.0990131 1.0061443 1.1043144 1.4386447e-38
3.1195264 1.0503395 1.1504856 1.3463771e-38
3.1393175 1.1501044 1.1508867 1.3002433e-38
2.9946034 1.280381 1.1087127 8.4844895e-39
3.0651209 1.258634 1.1470214 8.1153454e-39
3.1293535 1.2168897 1.1547037 1.0235842e-38
2.9981942 1.3032218 1.1029915 6.9182427e-39
3.0341589 1.3513902 1.1516873 9.2231321e-39
2.9834859 1.4722214 1.1515836 5.9952074e-39
3.0305455 1.432935 1.1485327 1.2541815e-38
2.9915597 1.5515388 1.1500845 1.2541812e-38
3.0004635 1.5677149 1.1076137 1.4109498e-38
2.9807353 1.650594 1.1494781 1.3648518e-38
2.950505 1.7501842 1.1488392 1.3556325e-38
2.9254656 1.8477217 1.149135 1.3555965e-38
2.9271674 1.9497586 1.1494131 1.3556325e-38
2.8991263 2.0966523 1.1000055 1.438644e-38
2.9309037 2.0502591 1.1498122 1.3648518e-38
2.8915367 2.1725197 1.1083329 1.3925822e-38
2.9321694 2.1508539 1.155442 1.3464844e-38
2.8769412 2.2595065 1.1289244 1.355668e-38
2.9177942 2.2381663 1.1718808 1.3188259e-38
2.7936845 2.3887572 1.106751 1.3463767e-38
2.8469751 2.3470592 1.1445943 1.3371571e-38
2.9103234 2.3171737 1.1922849 1.3003147e-38
2.7696762 2.4496021 1.1226257 1.3095344e-38
2.8391378 2.4428189 1.1707931 1.300243e-38
2.7789819 2.517854 1.1477902 1.2726562e-38
2.8233218 2.53143 1.1842635 1.2357421e-38
2.2662199 -1.6729263 1.2185831 1.0961164e-38
2.3550234 -1.6826968 1.241187 1.0227563e-38
2.4495907 -1.6728159 1.2512202 9.6776292e-39
2.5502672 -1.6589411 1.2516567 9.2177329e-39
2.6490004 -1.6487125 1.2482473 9.1255401e-39
2.7512259 -1.6313938 1.2494953 9.0340647e-39
2.8185163 -1.6112566 1.2499384 8.5738068e-39
2.9589469 -1.6008655 1.2254924 8.205746e-39
2.8654284 -1.5944507 1.25056 8.2050271e-39
2.9555676 -1.5967231 1.2528977 7.7447678e-39
3.0432613 -1.5698862 1.250401 7.4685411e-39
3.1475532 -1.5541215 1.2504648 7.0075629e-39
3.2493837 -1.5374719 1.2480342 6.4540318e-39
3.2765574 -1.4519171 1.2494243 5.9930565e-39
3.2507763 -1.3527325 1.2467203 5.071103e-39
3.1924195 -1.2395362 1.2555588 5.1633e-39
3.2057853 -1.2842252 1.2364941 4.0565937e-39
3.1555526 -1.1490394 1.2525322 4.2417024e-39
3.1520369 -1.0475365 1.2473446 4.7948748e-39
3.2010984 -1.0022992 1.2961684 6.4547535e-39
3.1912007 -0.99118924 1.2355565 5.0711016e-39
3.2301469 -0.94462723 1.2514013 4.8867089e-39
3.2610865 -0.85782605 1.2414353 5.808661e-39
3.3204532 -0.82549816 1.2816654 5.6246285e-39
3.2817018 -0.75327796 1.2216351 8.2064634e-39
3.3255913 -0.74722242 1.2753644 6.7313348e-39
3.281249 -0.64318907 1.2268074 7.468897e-39
3.3232934 -0.66440034 1.2739018 6.8231703e-39
3.2640991 -0.5478183 1.2461883 6.4547507e-39
3.3078868 -0.58727062 1.2905527 8.852193e-39
3.1867003 -0.4190819 1.2435424 8.9443844e-39
3.2271135 -0.46750781 1.2505885 6.178161e-39
3.1625035 -0.34777418 1.2471637 9.497554e-39
3.1760259 -0.26951 1.2582011 9.4982714e-39
3.2204101 -0.22829236 1.2385572 8.6685136e-39
3.2727537 -0.15850939 1.244716 8.8525447e-39
3.3047907 -0.13186716 1.2797468 8.7599889e-39
3.2901771 -0.044963602 1.2432628 9.8659764e-39
3.3063426 -0.072493054 1.2808319 1.0234757e-38
3.2898743 0.048351716 1.2524483 1.0327673e-38
3.2729993 0.15003501 1.2517145 1.1803529e-38
3.2608204 0.25113213 1.2498854 1.3001715e-38
3.2524469 0.34949926 1.2487147 1.3094271e-38
3.1889851 0.48547712 1.2149454 1.3555604e-38
3.2338595 0.44519094 1.2518494 1.309427e-38
3.1660094 0.55521369 1.2360947 1.3002074e-38
3.2182837 0.53574944 1.2821149 1.24489e-38
3.0853245 0.69029218 1.2116385 7.4703403e-39
3.1489289 0.64964741 1.2518047 1.2541096e-38
3.2018011 0.60185415 1.2979925 1.2172313e-38
3.0838034 0.72718257 1.2389172 5.0732568e-39
3.1188064 0.76358658 1.2532796 1.1526945e-38
3.1219375 0.85036266 1.247403 1.0881576e-38
3.1262043 0.94966763 1.2500442 1.24489e-38
3.1388543 1.0512177 1.2509029 1.2540736e-38
3.1458519 1.1519154 1.2501765 1.2172313e-38
3.0839036 1.2673445 1.2506042 9.3138886e-39
3.1241474 1.2196878 1.2482487 1.1895724e-38
3.07565 1.3435276 1.2412415 6.8253325e-39
3.1146057 1.3664235 1.2738314 2.9527629e-39
2.9891298 1.4742757 1.2500944 7.2855903e-39
3.0426433 1.429795 1.2534978 1.1342911e-38
3.1187038 1.4068588 1.2809893 3.2297085e-39
2.987278 1.5375339 1.2434303 1.1342553e-38
3.003365 1.5799148 1.2656225 1.2172669e-38
2.9908266 1.6542411 1.2298552 1.2725484e-38
3.0039158 1.6407286 1.2762486 1.217231e-38
2.9773836 1.7509615 1.2357037 1.2725486e-38
3.00565 1.7446808 1.287194 1.1895368e-38
2.9627094 1.8479128 1.2401559 1.2541456e-38
3.0066934 1.8448595 1.2921088 1.1249998e-38
2.9667201 1.9493153 1.2375004 1.2725846e-38
3.0077136 1.9554307 1.2900163 1.1618782e-38
2.9737074 2.0480452 1.2325743 1.28184e-38
3.0141215 2.0571625 1.2835497 1.2172673e-38
2.9759479 2.1512306 1.2260445 1.2818757e-38
3.0203977 2.1508265 1.2772301 1.2357422e-38
2.9649043 2.2497742 1.2276723 1.2726563e-38
3.0231671 2.2469037 1.2799388 1.2265226e-38
2.8976312 2.390696 1.2031094 1.3002431e-38
2.9535861 2.3487759 1.2378711 1.2449615e-38
3.0156963 2.342917 1.2878484 1.1065964e-38
2.8861578 2.4606929 1.2081605 1.2725844e-38
2.956754 2.451462 1.2594532 1.1619497e-38
3.0046074 2.4167025 1.2935991 1.1711335e-38
2.8714802 2.5572524 1.2200897 1.0882292e-38
2.9377661 2.5468955 1.2678471 1.134291e-38
2.8878281 2.6204197 1.2485621 1.1435824e-38
2.9209235 2.6304245 1.2793652 1.1526942e-38
2.3927393 -1.6897204 1.3034575 9.4914401e-39
2.4609435 -1.6637958 1.3223583 9.0326242e-39
2.552994 -1.6350772 1.3450249 8.5727278e-39
2.6475074 -1.6250252 1.3484291 8.5727278e-39
2.7520089 -1.6251466 1.349203 8.4808909e-39
2.8208072 -1.6104681 1.3516037 8.1124713e-39
2.9793682 -1.6019976 1.3659866 7.7444091e-39
3.0073216 -1.6014616 1.3812886 7.3756266e-39
2.8648095 -1.5921298 1.3466052 8.0202771e-39
2.9424522 -1.5955334 1.3387967 7.2830708e-39
3.0483854 -1.5728117 1.3485537 7.3759867e-39
3.1479659 -1.5485952 1.3511506 7.0072042e-39
3.2557909 -1.531356 1.3498466 6.5462288e-39
3.2920616 -1.461019 1.3277887 6.2700035e-39
3.3116581 -1.4473335 1.3681901 6.0856122e-39
3.273119 -1.3490554 1.3422949 4.4257364e-39
3.3093607 -1.3835881 1.3785532 5.5324398e-39
3.1974599 -1.228629 1.3070959 3.4115872e-39
3.2211132 -1.2473401 1.3496778 3.7807271e-39
3.1813931 -1.1367869 1.3427131 4.5182907e-39
3.2093673 -1.1805154 1.3655556 3.1349975e-39
3.183677 -1.0632502 1.337656 4.4260923e-39
3.2137995 -1.0272505 1.3659856 4.9792675e-39
3.2473261 -0.95519149 1.3424823 3.9651169e-39
3.3076704 -0.91522503 1.3875898 6.6384245e-39
3.2732966 -0.88239717 1.3225052 5.4398813e-39
3.3449931 -0.84454757 1.3550944 7.2837911e-39
3.3671713 -0.7532745 1.3464911 7.8376837e-39
3.4052603 -0.71812135 1.3926398 7.8369649e-39
3.3730173 -0.65108413 1.3430465 8.5748872e-39
3.4078052 -0.66628176 1.3881919 8.2057474e-39
3.2890048 -0.52687824 1.3155119 8.2064648e-39
3.3287044 -0.5540567 1.3575102 8.482693e-39
3.197763 -0.40691018 1.3032745 9.3124481e-39
3.2530527 -0.44480395 1.3476804 8.4830489e-39
3.30849 -0.48544154 1.3837874 8.3904946e-39
3.1786513 -0.33691031 1.3408689 8.4830461e-39
3.2111132 -0.37613782 1.3733459 8.5748816e-39
3.1755321 -0.25096804 1.3414258 9.4053583e-39
3.2070532 -0.21516487 1.3612559 8.944383e-39
3.1953893 -0.19409142 1.3430289 9.1284141e-39
3.2682924 -0.1542263 1.3533245 9.312804e-39
3.3031993 -0.12895861 1.3125464 1.0142921e-38
3.2950399 -0.047823351 1.3576924 9.7734206e-39
3.3031743 -0.067284659 1.3145616 9.6812236e-39
3.2951279 0.048930172 1.3500874 1.0142922e-38
3.291008 0.14797296 1.3495116 1.0512426e-38
3.2883046 0.24861977 1.3497951 1.134219e-38
3.2847004 0.34303755 1.3371497 1.1526582e-38
3.3111989 0.36095458 1.3817439 1.0235483e-38
3.278168 0.45136589 1.3273141 1.1803532e-38
3.3215127 0.45056143 1.3783224 9.8670666e-39
3.2543266 0.5528903 1.3491083 1.1711692e-38
3.3057542 0.51029849 1.3889505 1.1158517e-38
3.183743 0.66961455 1.331749 1.1895365e-38
3.2181721 0.63331914 1.3626873 1.1711332e-38
3.1606863 0.74660587 1.3487791 1.0143651e-38
3.200587 0.70320797 1.3990824 1.1526584e-38
3.1474664 0.85268521 1.3475077 1.1065963e-38
3.1487081 0.95067805 1.3466102 1.1803171e-38
3.1573267 1.0513922 1.3471615 1.1803171e-38
3.1499877 1.1508675 1.3464354 1.1618781e-38
3.0522659 1.2603487 1.3334697 4.9803451e-39
3.1270943 1.2206357 1.3473167 1.1065608e-38
3.0636275 1.3500631 1.3329986 8.6692408e-39
3.1090181 1.3928795 1.3472004 7.3788636e-39
2.9911759 1.4757422 1.3173881 3.2289938e-39
3.0528166 1.4408394 1.3426341 8.6688807e-39
3.107044 1.429839 1.3874984 1.0236208e-38
2.9832811 1.5190344 1.3163421 3.5988483e-39
3.0406792 1.5630031 1.3526444 1.0052172e-38
3.0529261 1.6507416 1.3520724 1.0604986e-38
3.0515347 1.7495427 1.3508891 1.0789021e-38
3.0511506 1.8521558 1.3499492 1.1065608e-38
3.0500474 1.9483731 1.3515761 1.1342195e-38
3.063426 2.0496428 1.3496903 1.1250358e-38
3.1007323 2.0948346 1.3956925 1.2080118e-38
3.0724697 2.1468542 1.3406965 1.1250357e-38
3.1083224 2.1634896 1.3874904 1.1803531e-38
3.0778506 2.2528257 1.3320819 1.097413e-38
3.1125572 2.2491055 1.3774296 1.1526944e-38
3.063117 2.3547287 1.3362409 1.1342911e-38
3.1128769 2.3463051 1.3845729 1.1895726e-38
2.9934683 2.477689 1.3070607 1.1065968e-38
3.0473669 2.4511299 1.3535278 1.1987922e-38
3.1052055 2.4130621 1.3956697 1.2356705e-38
2.9847121 2.5536897 1.3156505 1.1803888e-38
3.0288353 2.547987 1.3659563 1.2356703e-38
2.9722755 2.655154 1.3418787 1.2173029e-38
3.0129545 2.6313152 1.3818927 1.2080474e-38
2.9745452 2.7100987 1.3781736 1.1896082e-38
2.587271 -1.6179768 1.406146 8.1117525e-39
2.6593218 -1.6179024 1.4259343 8.0195582e-39
2.7522609 -1.6186435 1.4470354 7.9277213e-39
2.8295686 -1.610206 1.4499041 7.9280815e-39
2.9744134 -1.6059233 1.4507502 6.7302586e-39
3.0207815 -1.6056352 1.4575633 7.2837925e-39
2.8748698 -1.5948312 1.4473511 7.5600178e-39
2.9193091 -1.596038 1.4507222 7.3756266e-39
3.0644562 -1.5789906 1.4462854 7.0072056e-39
3.1448376 -1.554312 1.4503512 6.7309774e-39
3.2576985 -1.5427883 1.4443589 6.546226e-39
3.3235703 -1.5185794 1.4692582 6.0852493e-39
3.354779 -1.4603976 1.4427087 5.3480472e-39
3.4065318 -1.4581454 1.4910121 4.3335365e-39
3.2928722 -1.3111584 1.4085472 2.5818266e-39
3.3433025 -1.3538121 1.4544717 4.5179306e-39
3.2721989 -1.2409921 1.4264145 3.1349975e-39
3.3263667 -1.2578222 1.4755872 4.8867117e-39
3.1976552 -1.1034802 1.4024138 5.6239166e-39
3.2489581 -1.1470754 1.4416934 3.0424418e-39
3.3077154 -1.16093 1.4927633 4.9789073e-39
3.1973457 -1.094146 1.4022782 4.8867117e-39
3.2538576 -1.0596986 1.4308082 3.7803655e-39
3.3290789 -1.0373074 1.4769027 5.8083079e-39
3.2915564 -0.98206204 1.4085073 5.808668e-39
3.3296397 -0.94524592 1.4525993 6.3611187e-39
3.3719592 -0.86114627 1.4406356 6.7302572e-39
3.4141192 -0.82683158 1.4785131 6.6384217e-39
3.3944507 -0.7805438 1.4088523 7.2837911e-39
3.4312973 -0.74766302 1.4527833 7.1915954e-39
3.3951504 -0.60677224 1.418736 7.9291605e-39
3.4345121 -0.6542818 1.4501939 7.6525736e-39
3.3680608 -0.54465437 1.443897 7.8369634e-39
3.4101267 -0.58442485 1.4814265 7.6525722e-39
3.2752445 -0.42341977 1.4324955 8.2057446e-39
3.3276255 -0.46676245 1.4568274 7.9291591e-39
3.1984489 -0.30778986 1.4027619 8.6674374e-39
3.2469409 -0.35034701 1.4452801 8.4823315e-39
3.3019142 -0.36751035 1.4968327 8.1135503e-39
3.1985524 -0.29857066 1.4028074 8.6674402e-39
3.2456129 -0.24792919 1.4475093 8.6674402e-39
3.281296 -0.14988485 1.4379567 8.8518286e-39
3.3075771 -0.14700764 1.487044 8.9436683e-39
3.2904227 -0.050394509 1.4392078 9.5893909e-39
3.3077471 -0.051334292 1.4912624 8.9440285e-39
3.2950168 0.047136247 1.4407835 9.7741409e-39
3.3047583 0.056913301 1.4901048 9.4057227e-39
3.2960308 0.1484701 1.4343928 9.959251e-39
3.3045866 0.15244584 1.4834082 9.3138858e-39
3.2981479 0.2322434 1.4193643 1.0512067e-38
3.3048456 0.25531361 1.4627844 9.8667022e-39
3.3320916 0.34984618 1.451831 8.9447459e-39
3.3602555 0.4517498 1.4542336 6.9164519e-39
3.2829406 0.57046652 1.4222822 1.1342192e-38
3.3263249 0.54045981 1.4626827 1.0143649e-38
3.2654431 0.65264052 1.4480346 1.0604269e-38
3.3044782 0.61297709 1.4884259 9.9585391e-39
3.1969855 0.74826962 1.4048337 1.1342192e-38
3.2393713 0.75109458 1.4554538 1.0142933e-38
3.1909945 0.85835016 1.4139053 9.4064416e-39
3.2246721 0.84549475 1.4619913 1.0603911e-38
3.1895764 0.94791412 1.4163405 9.6826697e-39
3.2182009 0.95117998 1.4653766 1.0696466e-38
3.1920724 1.0534607 1.4123765 9.7745094e-39
3.2172818 1.0489823 1.4621507 1.0696467e-38
3.1854398 1.1582961 1.4257408 1.0051098e-38
3.2149658 1.1424782 1.4716109 1.0880858e-38
3.0960159 1.2854412 1.4025025 7.6554477e-39
3.1725051 1.2467474 1.4341203 1.0328041e-38
3.2133811 1.2455059 1.4831144 1.1249641e-38
3.0960281 1.3182045 1.4054856 8.8529118e-39
3.1629112 1.3600717 1.4538389 1.0973054e-38
3.2096362 1.3288841 1.4911263 1.1434034e-38
3.1466141 1.4472914 1.4521103 1.1341837e-38
3.0899482 1.5253723 1.4047043 9.9596181e-39
3.1412461 1.5524658 1.4581409 1.1434391e-38
3.0947213 1.6563796 1.4112556 1.1710975e-38
3.1165059 1.646149 1.4611269 1.1526585e-38
3.0950217 1.7441113 1.417429 1.1803172e-38
3.1113989 1.750573 1.4646661 1.1618423e-38
3.0916898 1.8586391 1.4142125 1.189501e-38
3.119957 1.8497989 1.4628183 1.1710619e-38
3.087467 1.9471049 1.4194323 1.1987206e-38
3.1188745 1.9507394 1.4723753 1.1618423e-38
3.0927269 2.0181642 1.4144031 1.2079759e-38
3.1211708 2.0534923 1.4560575 1.1895009e-38
3.1373572 2.1472929 1.4498116 1.1987562e-38
3.1612544 2.2513964 1.4503947 1.1987922e-38
3.1615443 2.3542089 1.4485614 1.2080478e-38
3.088294 2.4741499 1.4129071 1.226451e-38
3.1352396 2.4441121 1.4536371 1.2080119e-38
3.0766895 2.5600617 1.4334759 1.1987922e-38
3.1186626 2.5448487 1.4763508 1.1803531e-38
2.9484591 2.6599226 1.4766755 1.134291e-38
3.0424159 2.6510737 1.4535313 1.1711334e-38
2.9876299 2.7161448 1.4343097 1.1711332e-38
3.0044103 2.7041576 1.4404283 1.1711335e-38
2.780741 -1.615485 1.5083904 7.6507757e-39
2.8354969 -1.6070186 1.5240216 7.4671033e-39
2.9714291 -1.6055163 1.5515417 6.6377028e-39
3.0282545 -1.6072711 1.5473278 6.5458673e-39
2.8801839 -1.5959544 1.5365734 7.0986809e-39
2.9172976 -1.5954769 1.5467178 7.0064853e-39
3.0718079 -1.5866787 1.551276 6.6380643e-39
3.1439867 -1.568812 1.5521301 6.0852507e-39
3.2518272 -1.5622517 1.5536392 5.7161094e-39
3.3524966 -1.5385369 1.5532757 5.2551327e-39
3.4229376 -1.51064 1.5682561 4.8867103e-39
3.3918402 -1.4242799 1.5102688 5.1636573e-39
3.4359369 -1.4591811 1.5506032 4.5179292e-39
3.3864205 -1.3407732 1.5333405 4.7023218e-39
3.4137974 -1.3618163 1.571785 4.3335407e-39
3.3532107 -1.2479589 1.5515029 5.071103e-39
3.3406947 -1.1514207 1.5535512 5.346971e-39
3.360992 -1.0506829 1.5504845 5.4395253e-39
3.3695042 -0.94966745 1.5447026 5.8997832e-39
3.4056015 -0.9275316 1.5920894 5.345892e-39
3.3895614 -0.88768679 1.5291526 6.361476e-39
3.4264908 -0.84161991 1.5520163 6.3611159e-39
3.4736915 -0.75258785 1.5481532 6.8228129e-39
3.5036807 -0.71025407 1.5919164 6.8228143e-39
3.4750488 -0.64920479 1.5405686 7.2837911e-39
3.505193 -0.67195773 1.5851686 7.0993998e-39
3.388783 -0.51482671 1.5157373 7.7447678e-39
3.4360614 -0.55864209 1.546594 7.4678222e-39
3.3633595 -0.45462677 1.5212504 7.7444091e-39
3.4369857 -0.45088044 1.5772204 6.7298984e-39
3.3552179 -0.34909138 1.534925 7.0072042e-39
3.4235778 -0.34873056 1.5835559 7.8369649e-39
3.2940321 -0.23382358 1.5017085 8.2986605e-39
3.3535013 -0.24561881 1.5443342 7.5607367e-39
3.4125078 -0.26146525 1.5894794 8.1135503e-39
3.3557272 -0.14913045 1.541855 8.3901372e-39
3.4072459 -0.1443572 1.5926466 8.0213547e-39
3.3503261 -0.04890275 1.537647 8.3908575e-39
3.4109683 -0.052334666 1.5912727 8.3904974e-39
3.3484538 0.053042248 1.5432662 8.7603561e-39
3.4046612 0.037583765 1.5949463 9.4050052e-39
3.33412 0.15222616 1.5489762 9.7737877e-39
3.3161607 0.25076544 1.5505904 9.8670638e-39
3.336446 0.3515248 1.5480497 9.3131739e-39
3.3446774 0.44901276 1.5442128 6.7320606e-39
3.3387074 0.54894555 1.5446666 1.0051455e-38
3.2934551 0.67346495 1.5104651 9.8663449e-39
3.3251531 0.64697063 1.5561588 1.0695745e-38
3.2849114 0.76175064 1.5365268 1.1064529e-38
3.3100989 0.73424381 1.5752705 1.1156724e-38
3.2712684 0.84969473 1.5514601 1.1248922e-38
3.2660956 0.94682962 1.5496893 1.1157445e-38
3.3006835 0.99424088 1.5952146 1.1065251e-38
3.269129 1.0507432 1.5478415 1.1249641e-38
3.301594 1.0428462 1.5945343 1.1157447e-38
3.2665379 1.1521106 1.5521895 1.1249642e-38
3.3007021 1.1109098 1.5952235 1.1249642e-38
3.2469254 1.2532992 1.5583776 1.1249641e-38
3.1958706 1.3891414 1.5067538 1.1434032e-38
3.2243598 1.348075 1.5563875 1.1157447e-38
3.1876817 1.4569652 1.5244229 1.1249641e-38
3.2083662 1.4413606 1.5716285 1.1065251e-38
3.1755342 1.5599022 1.5479431 1.1157445e-38
3.2033248 1.5199882 1.5826675 1.106525e-38
3.1385372 1.6468678 1.5500888 1.1157445e-38
3.1363404 1.7505691 1.5497702 1.1157445e-38
3.1505783 1.8504692 1.5472459 1.1341837e-38
3.1518981 1.9504219 1.5529 1.1341835e-38
3.1516461 2.0483286 1.5515767 1.1434031e-38
3.1706333 2.1462293 1.5498614 1.1526228e-38
3.1925585 2.2343986 1.5261887 1.1619139e-38
3.2143047 2.2627838 1.5627195 1.1526585e-38
3.1957529 2.3739121 1.5055698 1.1895725e-38
3.2260942 2.3506613 1.5505146 1.1526944e-38
3.1842003 2.4638164 1.518012 1.1711335e-38
3.2264442 2.44629 1.5633733 1.1526945e-38
2.8825929 2.5940917 1.5685039 1.1250354e-38
2.9150648 2.594753 1.5852274 1.1066323e-38
3.0978394 2.5978909 1.5027673 1.1619139e-38
3.1612988 2.559495 1.5390081 1.1526944e-38
3.2135997 2.5314112 1.5839303 1.143475e-38
2.8820784 2.62058 1.5404282 1.1250356e-38
2.9486129 2.6304379 1.5427781 1.1250357e-38
3.0531421 2.6362643 1.545871 1.1342553e-38
3.1323795 2.6168785 1.56872 1.1342553e-38
2.9828639 -1.6060958 1.6138544 6.2689217e-39
3.0210598 -1.6037947 1.6197969 5.6235509e-39
2.9439101 -1.5998864 1.6032871 6.4529542e-39
3.067039 -1.58241 1.6379585 5.8997818e-39
3.1509221 -1.5647233 1.6501268 5.3473269e-39
3.2537689 -1.5539944 1.6521299 5.6239152e-39
3.3442094 -1.525912 1.648965 5.4398827e-39
3.4378085 -1.5069133 1.6424071 4.7945161e-39
3.3851497 -1.4987949 1.6975596 4.8870704e-39
3.4779565 -1.4564393 1.6492795 3.9647568e-39
3.5093446 -1.4691635 1.6748315 2.9502461e-39
3.3965194 -1.304897 1.6204634 5.2551355e-39
3.4403996 -1.3513843 1.6524017 4.3331792e-39
3.3604436 -1.2456344 1.6505786 5.1629371e-39
3.3514321 -1.148962 1.6516197 5.4395239e-39
3.3827462 -1.0699518 1.655843 5.6235565e-39
3.4180644 -1.0267358 1.6606809 5.8075876e-39
3.3995109 -0.96715522 1.6037428 5.6231977e-39
3.4278493 -0.94556147 1.655916 5.9916187e-39
3.4403515 -0.84648681 1.6553007 6.1763673e-39
3.4825356 -0.77793843 1.6584779 6.2689217e-39
