# .PCD v0.7 - Point Cloud Data file format
VERSION 0.7
FIELDS x y z rgb
SIZE 4 4 4 4
TYPE F F F F
COUNT 1 1 1 1
WIDTH 1073
HEIGHT 1
VIEWPOINT 0 0 0 1 0 0 0
POINTS 1073
DATA ascii
2.9509666 0.34923458 1.3519795 9.2206182e-39
3.0808291 0.35882524 1.3840444 9.9581804e-39
3.1519511 0.34815377 1.3438188 1.0050735e-38
3.2429955 0.34833312 1.3098934 1.0787942e-38
3.3507352 0.34204507 1.3195747 1.0973058e-38
3.4499519 0.34532836 1.320918 1.023549e-38
3.5447135 0.32275727 1.3204786 1.0050377e-38
3.6429946 0.31785715 1.3162103 9.8659862e-39
3.7481837 0.31269103 1.3154042 9.8663421e-39
3.8399215 0.30580702 1.3033351 9.8659806e-39
3.960284 0.32166186 1.3016101 9.7741423e-39
4.0504193 0.31292242 1.3042721 9.7737849e-39
4.1462903 0.30721384 1.3051608 9.6815893e-39
4.2494249 0.30782062 1.3068053 9.5893951e-39
4.3504505 0.30833629 1.306808 9.5893937e-39
4.4287195 0.30714145 1.3026805 9.5893937e-39
4.5063486 0.3009789 1.3002566 9.2206112e-39
2.5932736 0.40469444 1.3094451 5.9937865e-39
2.6597157 0.44637644 1.3375078 6.7313502e-39
2.7108645 0.48129585 1.3620044 6.5469589e-39
2.8423469 0.46061936 1.3147635 7.1919654e-39
2.9626186 0.44167739 1.3642325 8.8514811e-39
3.0433631 0.42323232 1.3908837 9.6815991e-39
3.1570938 0.44455466 1.3561826 9.9581776e-39
3.2152767 0.46195596 1.3134005 1.078794e-38
2.7588599 0.54958785 1.3480583 5.8090365e-39
2.8356812 0.56195384 1.3327264 5.993425e-39
2.9545782 0.55869281 1.370916 7.6533023e-39
3.0116887 0.54983735 1.3914585 8.6685304e-39
3.1829774 0.51622546 1.3775291 9.7741479e-39
3.2414267 0.55585605 1.3494573 1.0419879e-38
2.7984056 0.60340542 1.3544822 6.085622e-39
2.8291404 0.64908791 1.3634624 5.808675e-39
2.9597039 0.64173019 1.3793257 7.7444189e-39
3.0902338 0.67402852 1.382575 9.6815921e-39
3.1461053 0.66338301 1.3468271 1.0235127e-38
3.2367971 0.6252315 1.3435669 9.9592608e-39
2.855711 0.74722373 1.3740548 5.808675e-39
2.9382219 0.75487071 1.3811392 6.4536829e-39
3.1477675 0.75017983 1.3481718 9.9585391e-39
2.3944454 0.89570713 1.3057694 1.3092479e-38
2.4640708 0.89707536 1.3323011 1.2631502e-38
2.5598655 0.88024235 1.3197697 7.7462252e-39
2.648278 0.87749141 1.3410952 7.561115e-39
2.754962 0.86923337 1.3508422 7.0990565e-39
2.8428471 0.8424027 1.3636358 6.6384357e-39
2.9458807 0.85501117 1.3812736 7.5603892e-39
3.0095246 0.89568257 1.3980556 8.4823441e-39
3.1549988 0.84955192 1.3508397 1.0142573e-38
3.3874493 0.89331305 1.3048359 6.6395105e-39
3.4506938 0.8787418 1.3126912 7.2848785e-39
3.5555508 0.88335282 1.3221178 8.8525587e-39
3.6147571 0.89444649 1.3193631 9.6826781e-39
2.4669478 0.90830922 1.3246329 1.3000283e-38
2.5455537 0.90988076 1.3573534 1.2816252e-38
2.6294596 0.91747004 1.3864024 1.1618429e-38
2.886761 0.9007923 1.3176967 1.0051103e-38
2.9590194 0.91184944 1.3437573 9.8667092e-39
3.0526304 0.91949904 1.3567586 9.4979267e-39
3.1375787 0.91367579 1.3551462 9.6823166e-39
3.3648779 0.95883036 1.3036479 3.9665631e-39
3.4416468 0.95381963 1.3175687 5.4409715e-39
3.5462656 0.94078124 1.347459 8.4830601e-39
3.6664658 0.94574779 1.3429762 9.4982855e-39
3.7158184 0.98578161 1.3388631 9.6823166e-39
3.3920429 1.0382926 1.3047657 4.9814339e-39
3.4462945 1.0494131 1.3089575 4.1509557e-39
3.5486877 1.0572313 1.3320247 8.3912302e-39
3.6557724 1.0573806 1.3689351 9.3135425e-39
3.7624617 1.0429975 1.3718034 9.03695e-39
3.8416367 1.072294 1.3445964 8.2071907e-39
3.921829 1.0913773 1.3084664 6.3639928e-39
2.8466809 1.1962956 1.3265142 1.6505522e-38
3.4710331 1.1269562 1.3115529 4.5197383e-39
3.5289538 1.1551392 1.3199451 5.4409757e-39
3.6490741 1.1396635 1.3484358 1.217089e-38
3.7627375 1.1459552 1.353995 1.1895377e-38
3.845309 1.1413659 1.3319048 1.097342e-38
3.9530475 1.1551826 1.3149313 9.4064514e-39
2.3932595 1.2326943 1.3032378 1.3644571e-38
2.4354963 1.2685696 1.309882 1.4290306e-38
2.511174 1.2896272 1.3137721 1.742605e-38
2.8792648 1.2171193 1.3425885 1.6136381e-38
2.9678545 1.254362 1.3511361 1.5491011e-38
3.0232606 1.2851222 1.3418976 1.530734e-38
3.5612376 1.2181243 1.3145626 7.0086601e-39
3.6638532 1.2446456 1.3408382 1.3001731e-38
3.7552924 1.2568991 1.3367784 1.4384661e-38
3.8353376 1.2390112 1.3189807 1.374001e-38
3.9472747 1.2200902 1.3117118 1.0790107e-38
2.4739387 1.3334659 1.3117863 1.816361e-38
2.5523784 1.3518947 1.3285627 1.8809705e-38
2.6716857 1.3832637 1.3120801 1.1249306e-38
2.7262282 1.3765324 1.3192539 1.2171261e-38
2.9812515 1.3964726 1.3943601 1.7613677e-38
3.0615118 1.3622607 1.3676696 1.7520757e-38
3.1275201 1.3700387 1.362438 1.7152693e-38
3.6962836 1.3027077 1.3384783 1.4476501e-38
3.7483249 1.3113843 1.3093469 1.5767595e-38
3.8568287 1.3263251 1.3014406 1.8166119e-38
3.9230983 1.3357767 1.3013257 1.9826001e-38
2.3958035 1.4198476 1.303049 1.8439483e-38
2.4523218 1.4683037 1.3164552 2.1482303e-38
2.6662998 1.439332 1.3065426 1.0419551e-38
2.7533875 1.4546406 1.3378055 1.2632602e-38
2.8713772 1.457417 1.3817412 1.5399544e-38
2.9599311 1.4564936 1.3734107 1.6414777e-38
3.0567234 1.4462745 1.3455019 1.8257968e-38
3.1148455 1.4151012 1.3600925 1.8627823e-38
2.4919724 1.5177661 1.3321657 2.240426e-38
2.5139346 1.5705502 1.3316641 2.2957434e-38
2.6382203 1.5757926 1.3117062 1.8714324e-38
2.7649493 1.5340296 1.3428808 1.8350174e-38
2.8583066 1.5505584 1.3813154 1.7704802e-38
2.9604902 1.5489634 1.3683921 1.7613324e-38
3.0579786 1.5433637 1.3234499 2.065362e-38
3.1159432 1.5827794 1.3143445 2.2497173e-38
2.4627576 1.6390811 1.323145 2.341769e-38
2.5296192 1.6212158 1.3172824 2.2772323e-38
2.648325 1.6520929 1.3329048 1.7515766e-38
2.7389779 1.6649532 1.3584363 2.0927726e-38
2.8515964 1.6395282 1.3892926 2.1760339e-38
2.9556029 1.6163031 1.381904 1.9733826e-38
3.0542719 1.6430216 1.3710181 2.1208593e-38
3.155066 1.6525019 1.3532277 2.2221306e-38
3.2369418 1.6753223 1.3376787 2.2589367e-38
3.3446572 1.6859518 1.3146858 2.2682282e-38
3.415782 1.6957926 1.3058747 2.2682643e-38
2.4615386 1.7530178 1.3220593 2.3234019e-38
2.582072 1.7211889 1.3117555 1.3091791e-38
2.6656642 1.7479978 1.3440027 1.3644613e-38
2.7401736 1.7550384 1.3674304 1.7238471e-38
2.8141298 1.7564455 1.3945607 2.1757115e-38
3.0782812 1.7694581 1.3788953 2.3234378e-38
3.1492872 1.7530264 1.35116 2.3234378e-38
3.2459421 1.7312657 1.3339311 2.3234019e-38
3.3428838 1.7274923 1.3184458 2.3234016e-38
3.4482493 1.7442441 1.3161588 2.3142182e-38
3.5153155 1.751508 1.3091948 2.3142542e-38
2.3963985 1.8609951 1.3051062 2.1853243e-38
2.4809608 1.8583798 1.3278801 2.277412e-38
2.5061584 1.8581146 1.3469031 2.3142183e-38
2.6801543 1.8150003 1.3301131 1.5212286e-38
2.7519622 1.8357681 1.3646165 1.6779264e-38
2.8122532 1.8533026 1.3933475 1.8622469e-38
3.0691855 1.8453901 1.3717251 2.3234019e-38
3.1367772 1.8459015 1.3266826 2.3141823e-38
3.2355201 1.8855573 1.31285 2.1298271e-38
3.3076999 1.8946564 1.3051233 2.0468151e-38
2.6123257 1.9646116 1.3002195 1.5582852e-38
2.7712834 1.9819051 1.367226 1.7059431e-38
2.8640523 1.9816058 1.3836585 1.8442364e-38
2.9777081 1.9794043 1.3378155 2.0469952e-38
3.0547035 1.9657295 1.3624463 2.1759969e-38
3.1384306 1.9444726 1.3443462 2.212875e-38
3.2439797 1.9322838 1.3181195 1.9640187e-38
3.3254848 1.9281563 1.3120469 1.8901183e-38
2.3949652 2.06581 1.3032875 1.8718228e-38
2.4086571 2.0880866 1.3073409 1.8534197e-38
2.6520729 2.0575509 1.3142807 1.5122956e-38
2.763171 2.0574152 1.3504912 1.6505893e-38
2.8540096 2.0479252 1.348596 1.6967953e-38
2.9471514 2.0236182 1.3515043 1.7521127e-38
3.0030344 2.0036466 1.3725665 1.8350527e-38
2.4431965 2.1528986 1.3174437 1.7981741e-38
2.6459236 2.1318512 1.3085438 1.3832217e-38
2.7456164 2.1308277 1.3302215 1.6137828e-38
2.848635 2.1456935 1.3255184 1.5953797e-38
2.4837241 2.2204685 1.33032 1.5677212e-38
2.5150509 2.265578 1.3530746 1.6967949e-38
2.8707306 2.2297738 1.3292611 1.8073934e-38
2.9096825 2.2636199 1.3303677 1.8719303e-38
3.4719076 2.2757852 1.3098825 1.3370879e-38
3.5478535 2.2729237 1.3112813 1.37393e-38
3.6234047 2.2865319 1.3055272 1.3646383e-38
3.483716 2.3196678 1.3098892 1.2818065e-38
3.5515816 2.3404772 1.3160158 1.3001738e-38
3.6482391 2.3523197 1.3203877 1.3185766e-38
3.7306883 2.3707075 1.3114067 1.3001012e-38
3.8358877 2.388943 1.3077735 1.2816622e-38
3.9736011 2.3959751 1.3013004 1.2724069e-38
3.5951488 2.4055195 1.3096361 1.1987944e-38
3.6692555 2.4303765 1.324399 1.2079779e-38
3.7360241 2.4523478 1.3289932 1.2171613e-38
3.8532195 2.4491627 1.3345444 1.2632231e-38
3.9557059 2.4484746 1.324807 1.2632232e-38
4.0510941 2.4566796 1.316808 1.2447479e-38
4.1246476 2.4840577 1.308718 1.2170894e-38
3.78145 2.5120606 1.3182341 1.16188e-38
3.8564596 2.5375211 1.3345629 1.1341495e-38
3.9567847 2.5621686 1.3521852 1.1064908e-38
4.0533028 2.5640235 1.3504782 1.1064906e-38
4.1181307 2.5524917 1.3349577 1.1710273e-38
4.0841455 2.603723 1.3758073 1.060393e-38
4.1079655 2.6059878 1.3732615 1.161844e-38
3.1915843 -2.8206666 1.4072037 1.3093206e-38
3.2301366 -2.838192 1.4628273 1.2816619e-38
3.1897583 -2.7449913 1.4154167 1.2816979e-38
3.2294178 -2.7600598 1.4624708 1.3093566e-38
4.9881206 -2.7012262 1.408084 1.3462706e-38
5.0574536 -2.706804 1.420419 1.3554902e-38
5.150692 -2.7113338 1.4252709 1.3647097e-38
5.2409568 -2.7080986 1.416925 1.3462347e-38
5.3292813 -2.7048349 1.4044136 1.3277959e-38
3.1761589 -2.6397276 1.4431356 1.3093566e-38
3.2119524 -2.676559 1.4731741 1.318576e-38
4.5665722 -2.6068563 1.4080894 1.3554544e-38
4.6552534 -2.6161501 1.4298462 1.3462349e-38
4.7506223 -2.6300988 1.4490191 1.3462349e-38
4.8501348 -2.6545184 1.4522737 1.3462347e-38
4.9469419 -2.6760907 1.454906 1.3462349e-38
5.0468168 -2.6874995 1.4681989 1.3462349e-38
5.1491337 -2.6841929 1.4745878 1.3462349e-38
5.2509608 -2.6846416 1.463683 1.3462347e-38
5.3583302 -2.6589062 1.448168 1.1895023e-38
3.0969772 -2.5006959 1.402938 1.3093566e-38
3.1407373 -2.5488162 1.4546759 1.2909175e-38
4.0911136 -2.5036857 1.4047247 1.3370153e-38
4.1606889 -2.5149205 1.428956 1.3185762e-38
4.253109 -2.5268075 1.4464492 1.3093566e-38
4.34969 -2.5435202 1.4466623 1.3093566e-38
4.4510789 -2.5601122 1.4473075 1.3093566e-38
4.5482197 -2.5758059 1.4541901 1.3093566e-38
4.6369538 -2.5851004 1.476699 1.3093566e-38
4.7125111 -2.5984321 1.4923179 1.3093566e-38
5.2990947 -2.5071423 1.4716579 1.3186119e-38
5.3171768 -2.5461419 1.4479841 1.3278316e-38
3.0872068 -2.4477234 1.4200565 1.2909176e-38
3.1345026 -2.4484205 1.4683864 1.2724786e-38
3.7738869 -2.4052591 1.4079853 1.2909175e-38
3.8579986 -2.4127333 1.4276128 1.2816979e-38
3.9463425 -2.4326129 1.4438896 1.2909175e-38
4.0504389 -2.4697559 1.4481499 1.2909175e-38
4.143579 -2.488517 1.4742624 1.2816979e-38
4.2156005 -2.4967504 1.4940919 1.2816979e-38
5.2958627 -2.4597723 1.4602456 1.3093565e-38
5.3151102 -2.4298203 1.4345584 1.3001728e-38
6.0786567 -2.4002304 1.4031504 1.2356356e-38
6.1548715 -2.4051201 1.4133352 1.2264161e-38
6.2504706 -2.4083371 1.4152986 1.2171967e-38
6.3264723 -2.4045074 1.407853 1.2079771e-38
3.0807574 -2.361403 1.413367 1.2816982e-38
3.1459906 -2.3506014 1.4542761 1.2816982e-38
3.242614 -2.3291996 1.4822872 1.2540395e-38
3.3182132 -2.3063822 1.4954847 1.2724784e-38
3.4814105 -2.3088388 1.4165697 1.2724784e-38
3.5503457 -2.3277864 1.443289 1.2724784e-38
3.6527183 -2.3658409 1.4462675 1.2724785e-38
3.7470307 -2.3851266 1.4528821 1.2816979e-38
3.8357952 -2.3936594 1.4710342 1.2724784e-38
5.3583093 -2.383261 1.457466 1.2632947e-38
5.446815 -2.3607888 1.4492112 1.2540751e-38
5.5478711 -2.3488879 1.4484788 1.2448554e-38
5.6488233 -2.3461421 1.4474729 1.2356e-38
5.7467594 -2.3498409 1.4489986 1.2264163e-38
5.8519897 -2.3618383 1.4510887 1.2171967e-38
5.9491935 -2.3703454 1.4508344 1.207977e-38
6.0508466 -2.3797476 1.4514484 1.1987574e-38
6.1476378 -2.3799746 1.4642249 1.1710986e-38
6.2531466 -2.3746655 1.4675592 1.1710986e-38
6.3503776 -2.3680284 1.4543923 1.1710988e-38
6.4508724 -2.3574862 1.448674 1.1618792e-38
6.548245 -2.3356462 1.4505399 1.0605359e-38
6.6199827 -2.3209999 1.4297425 9.406457e-39
3.0913699 -2.2910111 1.4063429 1.2724786e-38
3.1622653 -2.2711372 1.4189428 1.2632589e-38
3.2549286 -2.2645695 1.4340038 1.2632588e-38
3.3485982 -2.2656858 1.4515045 1.2632588e-38
3.4428575 -2.2809463 1.4546571 1.2632229e-38
3.5063694 -2.2970853 1.4872253 1.2632589e-38
6.494051 -2.2082424 1.4756123 1.0512802e-38
6.555788 -2.2524922 1.4558244 9.8677924e-39
6.6135664 -2.2902267 1.4375606 8.4845007e-39
6.3503828 -2.1198378 1.4504429 1.1249646e-38
6.4421506 -2.1729655 1.4489002 1.0881224e-38
6.1721721 -2.0196044 1.4505466 1.1525876e-38
6.2497087 -2.0636847 1.4451973 1.143368e-38
3.0887563 -1.9013988 1.4972399 1.4753808e-38
3.1511014 -1.9119446 1.4968652 1.4753087e-38
3.2592492 -1.9153198 1.4913679 1.4660892e-38
3.3152914 -1.9329221 1.4970405 1.4569415e-38
5.976994 -1.9038013 1.4522653 1.1710627e-38
6.0407352 -1.9410858 1.4493923 1.1618073e-38
6.1191421 -1.9874458 1.4541055 1.1618072e-38
2.8820794 -1.8091573 1.4891955 1.6043476e-38
2.9546602 -1.8275948 1.4778433 1.5767244e-38
3.0516932 -1.8462864 1.4721359 1.5214786e-38
3.1476164 -1.8504444 1.4700985 1.5121869e-38
3.2434545 -1.8552172 1.4744484 1.5214787e-38
3.3368683 -1.84372 1.4927493 1.5491734e-38
5.1950955 -1.8040186 1.4989868 1.4291748e-38
5.2430439 -1.8307614 1.4985118 1.3738571e-38
5.8573465 -1.8261924 1.4520304 1.2263442e-38
5.9307671 -1.8742172 1.4527926 1.1894661e-38
2.6962903 -1.7025939 1.4651874 2.1022043e-38
2.7534673 -1.7193167 1.4633591 1.9454717e-38
2.8492377 -1.7387669 1.4532828 1.8072139e-38
2.9494793 -1.7368683 1.4428287 1.7888103e-38
3.051964 -1.7454861 1.4385625 1.6781754e-38
3.1494188 -1.7497571 1.4459993 1.6965787e-38
3.2456594 -1.749946 1.4645365 1.7612235e-38
3.3486691 -1.7451421 1.4847975 1.8073215e-38
3.4516935 -1.7349586 1.4843401 1.7979941e-38
3.5491529 -1.7382311 1.4842851 1.7427128e-38
3.6451244 -1.7389566 1.4883114 1.7242375e-38
3.7409403 -1.7220634 1.4891353 1.7426766e-38
3.8400693 -1.7172327 1.4901886 1.7702996e-38
3.9495633 -1.7125992 1.4870579 1.7887386e-38
4.0509915 -1.7169002 1.4878054 1.7518962e-38
4.1472678 -1.7206825 1.4855582 1.7334569e-38
4.2460823 -1.7235194 1.4854461 1.7242371e-38
4.3457084 -1.7248192 1.4884937 1.7242011e-38
4.4431682 -1.7191319 1.4895087 1.7242011e-38
4.5485706 -1.713093 1.4887112 1.7242014e-38
4.6455503 -1.7155882 1.4916505 1.7149814e-38
4.7497668 -1.7215445 1.4858602 1.6412249e-38
4.8498936 -1.7319494 1.4796354 1.5674681e-38
4.9512 -1.7442843 1.4788638 1.5213704e-38
5.0484014 -1.7496909 1.4808979 1.4937117e-38
5.1502237 -1.7538185 1.486324 1.4752726e-38
5.2482767 -1.7452152 1.489311 1.4568695e-38
5.3421025 -1.7403499 1.4945973 1.4568695e-38
5.6754293 -1.7111534 1.4474928 1.3093203e-38
5.7566628 -1.7566435 1.450804 1.2632226e-38
5.8058753 -1.7899643 1.4616379 1.2447837e-38
2.6906736 -1.6971059 1.4653703 2.1852164e-38
2.7523639 -1.6737958 1.4239733 1.8717152e-38
2.8541377 -1.671995 1.4268311 1.9823857e-38
2.9534717 -1.680017 1.4406818 2.0284834e-38
3.0541136 -1.6751713 1.4581003 2.1575214e-38
3.1556857 -1.6476531 1.4626464 2.2589006e-38
3.2311037 -1.6252259 1.4497908 2.249681e-38
3.3479159 -1.6489284 1.4401276 2.0284475e-38
3.4454763 -1.6492881 1.4383789 1.8993736e-38
3.5484734 -1.6538076 1.4421726 1.8348365e-38
3.6520219 -1.6525151 1.4442827 1.8532757e-38
3.7487001 -1.6481707 1.4435709 1.8993376e-38
3.8506916 -1.6450387 1.4425696 1.9085572e-38
3.9472132 -1.645625 1.4408007 1.8624951e-38
4.0523934 -1.6470388 1.4387075 1.8256168e-38
4.1506486 -1.6502249 1.4414228 1.8256168e-38
4.2498174 -1.646132 1.4429724 1.8532394e-38
4.3533802 -1.6457329 1.4471357 1.8532394e-38
4.4559808 -1.6490024 1.4511164 1.8163612e-38
4.5454326 -1.6423532 1.4457921 1.7887023e-38
4.6479406 -1.6499889 1.4449708 1.7333846e-38
4.7508173 -1.6536311 1.4405199 1.6504804e-38
4.8483715 -1.6581645 1.4392982 1.6043826e-38
4.9459906 -1.6561165 1.4395667 1.5675044e-38
5.045949 -1.6532643 1.444357 1.5675404e-38
5.1439581 -1.6469176 1.4516634 1.5859436e-38
5.2386823 -1.6534282 1.4632916 1.5766879e-38
5.3550034 -1.6477646 1.4689577 1.5582129e-38
5.4607024 -1.6315861 1.449037 1.4752367e-38
5.547708 -1.6512135 1.4403365 1.383077e-38
5.6245694 -1.6859221 1.4503191 1.3277597e-38
3.2631629 -1.5816664 1.4559791 2.3234016e-38
3.3460243 -1.5410025 1.4456862 2.3234016e-38
3.4387417 -1.5098802 1.4386137 2.3141821e-38
3.5483162 -1.5116279 1.4155049 2.2957429e-38
3.6290758 -1.5506396 1.4053731 2.1943636e-38
3.7610304 -1.588158 1.4053091 2.1482302e-38
3.8445694 -1.5886866 1.4059466 2.0745093e-38
3.9521725 -1.5918478 1.405408 1.9823497e-38
4.0542669 -1.5899259 1.4062121 1.9823137e-38
4.1489115 -1.5834826 1.4065855 2.037631e-38
4.2482524 -1.5854977 1.4122347 2.0745092e-38
4.3620658 -1.5782198 1.4089584 2.0468506e-38
4.4514098 -1.5810299 1.4108635 1.973094e-38
4.5572104 -1.5830188 1.4091129 1.8715707e-38
4.6501813 -1.589421 1.4073132 1.7518242e-38
4.7518582 -1.5894617 1.4041657 1.6781035e-38
4.8552885 -1.5878954 1.4043981 1.6504444e-38
4.9491577 -1.5784659 1.4092596 1.6781035e-38
5.0498114 -1.5724113 1.4164342 1.7056906e-38
5.1424689 -1.5854348 1.43187 1.6043113e-38
5.2417216 -1.5695423 1.4205757 1.6501929e-38
5.3455544 -1.5701816 1.4133443 1.5397018e-38
5.4289737 -1.5875883 1.413142 1.4567979e-38
3.4746284 -1.4888209 1.48581 2.3142179e-38
3.5510693 -1.4801277 1.4777539 2.2865592e-38
3.6467807 -1.4894434 1.4567343 2.3234016e-38
3.7466445 -1.4867899 1.4504784 2.3326212e-38
3.8500268 -1.4834247 1.451063 2.3326212e-38
3.9514139 -1.4794601 1.4483949 2.3326212e-38
4.0489898 -1.4699073 1.4510098 2.3326212e-38
4.1467838 -1.4565418 1.4512242 2.332621e-38
4.2509937 -1.4457598 1.4501878 2.3234375e-38
4.3537827 -1.4312571 1.4542081 2.3234016e-38
4.4462776 -1.4155673 1.4489799 2.3234375e-38
4.5352211 -1.4052774 1.4323677 2.3234375e-38
4.272943 -1.3796474 1.4975963 2.1667045e-38
4.3533731 -1.3724117 1.4934725 2.157521e-38
4.4563065 -1.3678501 1.4866457 2.1667404e-38
4.558619 -1.3592463 1.4731205 2.1206068e-38
4.6486349 -1.3617394 1.4540355 2.1943633e-38
4.7486215 -1.3473113 1.4492698 2.1851438e-38
4.8508797 -1.3550209 1.442637 2.3049624e-38
4.9463148 -1.354941 1.4346147 2.3234013e-38
5.0481086 -1.3498164 1.4346838 2.3142178e-38
5.1482501 -1.3424101 1.4349265 2.3234013e-38
5.2494135 -1.3294529 1.4303452 2.3234374e-38
5.354485 -1.3164363 1.4258429 2.3234016e-38
5.4259191 -1.3053645 1.4223685 2.3234374e-38
4.5688844 -1.2345494 1.4786173 1.5122576e-38
4.6419706 -1.2508937 1.4512347 1.5768309e-38
4.7523012 -1.2716758 1.439268 1.7058336e-38
4.8406491 -1.2786393 1.4242272 1.9454706e-38
4.9493957 -1.2694741 1.4189743 2.0930196e-38
5.0510383 -1.2687871 1.4239954 2.1760317e-38
5.1486979 -1.2582715 1.4235437 2.1575567e-38
5.2501554 -1.2610815 1.4303838 2.1483373e-38
5.3587122 -1.259735 1.4348868 2.1483012e-38
5.4628344 -1.2711898 1.4287263 2.2497164e-38
5.5434976 -1.2476178 1.4198374 2.2128741e-38
5.6464701 -1.2213062 1.4177051 2.1391174e-38
5.7045946 -1.211459 1.4155632 2.1299336e-38
4.3928328 -1.1071637 1.4931082 1.3924033e-38
4.4614286 -1.1333729 1.4620911 1.4292455e-38
4.5368509 -1.1712247 1.439413 1.4661598e-38
4.6057215 -1.1940414 1.402019 1.5491363e-38
5.2833652 -1.1944131 1.4025022 1.7334565e-38
5.3439803 -1.1926576 1.403134 1.7427477e-38
5.4525962 -1.1815312 1.4080729 1.6412965e-38
5.5538602 -1.1794207 1.4101765 1.6598076e-38
5.6485476 -1.1882138 1.4097379 1.8164684e-38
4.2885046 -1.0116907 1.4944247 1.3370501e-38
4.3621502 -1.0396801 1.4600492 1.3739642e-38
4.4256763 -1.0751808 1.4277672 1.401623e-38
4.1587253 -0.92221552 1.4644669 1.1249644e-38
4.252418 -0.96274841 1.4692166 1.2817328e-38
4.3339686 -0.98412097 1.4383947 1.3554895e-38
3.7675798 -0.80282062 1.4406997 1.6321121e-38
3.8454225 -0.82437271 1.4413468 1.7058684e-38
3.951973 -0.85390341 1.4477519 1.6413316e-38
4.0464487 -0.88113678 1.4469677 1.4845631e-38
4.1085191 -0.89917898 1.4521885 1.2171957e-38
3.4698472 -0.70182371 1.4116837 1.2723693e-38
3.5544989 -0.72502697 1.4433161 1.2816606e-38
3.6538355 -0.76221597 1.4478594 1.4199901e-38
3.7101882 -0.78524679 1.4545829 1.5030022e-38
3.1664042 -0.60291827 1.4924015 9.4042878e-39
3.2624068 -0.60979241 1.4530938 8.8525517e-39
3.344012 -0.63495469 1.4522811 9.1291358e-39
3.4429758 -0.66721827 1.4617027 9.8663421e-39
3.5217016 -0.68777603 1.4807239 1.0234764e-38
2.8639355 -0.51514786 1.4526252 9.2198965e-39
2.9461973 -0.5425145 1.4504752 9.0355052e-39
3.0489089 -0.56831944 1.4531058 9.3120921e-39
3.1485624 -0.58301574 1.4470845 9.0362255e-39
3.2208602 -0.5943656 1.4367143 8.5759662e-39
2.5871696 -0.41480145 1.4071293 9.7737905e-39
2.654953 -0.44501477 1.4258446 9.6808746e-39
2.7494166 -0.47875863 1.448663 9.4968421e-39
2.8081515 -0.49709892 1.4449798 9.2206154e-39
3.262249 -0.14732087 1.4165622 9.2213412e-39
3.3562648 -0.13323011 1.4396372 9.4979253e-39
3.444442 -0.1148137 1.45515 9.7745108e-39
3.1647141 -0.0045127571 1.4035908 7.37743e-39
3.2560515 -0.0176713 1.4126441 7.7462098e-39
3.3510795 -0.019244809 1.4354832 8.391582e-39
3.4559782 -0.05229466 1.4363519 9.7745136e-39
3.5022647 -0.084396429 1.4955877 8.8525587e-39
3.1633503 0.061769206 1.4081347 9.8663477e-39
3.2467804 0.050454333 1.4182198 9.9589035e-39
3.3505089 0.020537078 1.4275641 7.4696215e-39
3.4287789 0.01262071 1.4238389 8.4841335e-39
3.7703319 0.082032263 1.4070401 6.7320564e-39
3.8337529 0.074834682 1.4086412 7.4696243e-39
3.1611083 0.14764009 1.4123237 1.0050016e-38
3.241621 0.1182991 1.4006481 9.9585405e-39
3.7998517 0.10029869 1.4033914 6.3632739e-39
3.8215294 0.10087088 1.4031236 6.4554695e-39
3.0945883 0.2959764 1.4018557 1.0512072e-38
3.138453 0.24823268 1.4086376 1.0050731e-38
2.5854204 0.37550023 1.4057132 1.0049659e-38
2.6206348 0.39117515 1.4152411 9.865626e-39
3.0804939 0.37315199 1.4010187 9.9585405e-39
3.1266494 0.30765378 1.4044727 1.0234764e-38
2.675009 0.41447985 1.4295282 9.8652659e-39
2.7502544 0.449312 1.44844 9.6812348e-39
2.8267634 0.4806419 1.4747627 9.8656246e-39
3.0828259 0.44071358 1.4067739 9.8656302e-39
3.1363804 0.46791351 1.4155035 9.7737919e-39
2.7824969 0.55717653 1.4107294 5.9015895e-39
2.8490498 0.55419558 1.4586959 7.8373292e-39
2.9088912 0.56133169 1.4959246 9.2206182e-39
3.0681255 0.55568022 1.4149344 9.2213426e-39
3.1694722 0.53839326 1.4331101 9.7745108e-39
3.2109444 0.57437569 1.4278789 9.8667036e-39
2.7983022 0.60271007 1.4028766 6.4540416e-39
2.8422811 0.65598267 1.4386657 6.8231801e-39
2.9078586 0.64061838 1.4983522 9.0355052e-39
3.0689917 0.66128707 1.410939 9.5890405e-39
3.1563132 0.62484312 1.4246275 9.7741479e-39
3.2082682 0.61151487 1.4197406 9.8670624e-39
2.8663151 0.74995029 1.4452066 7.099411e-39
2.9535859 0.77821523 1.4434506 6.9146568e-39
3.0707195 0.73770934 1.4243441 9.0351535e-39
3.1261539 0.76259071 1.4231875 9.3124551e-39
2.6970236 0.89605874 1.4046301 7.4696313e-39
2.7574098 0.89485782 1.4070399 7.3763608e-39
2.8712807 0.85323381 1.438949 7.2838065e-39
2.9117277 0.84592843 1.478665 7.1916081e-39
3.0624027 0.85525304 1.4225327 8.4823385e-39
3.1186411 0.84428167 1.4160395 8.9440299e-39
2.5913324 0.9170202 1.4056571 1.1709546e-38
2.6628537 0.92794734 1.4257896 1.1248926e-38
2.7483189 0.9280293 1.4571218 1.014258e-38
2.8390296 0.91283989 1.4696087 7.4685537e-39
3.0768485 0.9088037 1.4103192 8.5756089e-39
3.1041312 0.9034819 1.4118782 8.5759676e-39
3.7601776 1.0520324 1.401552 8.4841377e-39
2.9827652 1.2793027 1.4071404 1.5492092e-38
3.0139697 1.2970345 1.4153347 1.6137102e-38
2.9784379 1.3842449 1.4129111 1.6783198e-38
3.0376759 1.3468082 1.414851 1.6506246e-38
3.1128457 1.3595781 1.4073381 1.6045265e-38
2.9484682 1.4084738 1.4069046 1.8073575e-38
2.9179013 1.5587769 1.4017907 1.7428212e-38
2.8685625 1.6674565 1.4042559 2.2497183e-38
2.9624884 1.6644746 1.4207819 2.1853608e-38
3.0376732 1.6861186 1.4155509 2.2498973e-38
2.8622763 1.7519193 1.4124736 2.277233e-38
2.9670503 1.746835 1.44558 2.3142185e-38
3.0408998 1.751521 1.4264462 2.3142183e-38
2.862515 1.844689 1.416698 2.1665275e-38
2.9580314 1.8562165 1.4504554 2.3141826e-38
3.0326173 1.8530873 1.4358312 2.3234019e-38
2.8823483 1.9554808 1.4142647 2.0193007e-38
2.9642987 1.9599844 1.4300175 2.139119e-38
3.0297544 1.9357113 1.4189067 2.2128393e-38
2.8828313 2.0019219 1.4080858 1.8074304e-38
2.9649525 2.0088916 1.4085495 1.8810787e-38
3.290328 -2.9107602 1.5487701 1.31854e-38
3.3104978 -2.9343596 1.5783789 1.3277597e-38
3.2655597 -2.842036 1.5489373 1.3277957e-38
3.2519591 -2.7545013 1.5491593 1.3093566e-38
3.1908314 -2.616626 1.5256472 1.2908818e-38
3.2211897 -2.655993 1.5559953 1.2816982e-38
4.7751431 -2.6030965 1.5064012 1.3001728e-38
4.8561854 -2.6129875 1.5155331 1.2817338e-38
4.9566884 -2.6229789 1.5347906 1.2817337e-38
5.0510125 -2.6337886 1.5450855 1.2909173e-38
5.1477046 -2.6414568 1.5475222 1.2909175e-38
5.2482615 -2.6503923 1.5471703 1.2632948e-38
5.3491392 -2.6396313 1.5465051 1.1249655e-38
3.1818545 -2.5587494 1.5225884 1.2632591e-38
3.232373 -2.551753 1.5700272 1.2540395e-38
4.2820897 -2.504199 1.5172553 1.2632589e-38
4.3519635 -2.5157211 1.5504334 1.2632589e-38
4.4499173 -2.529911 1.5520536 1.2632591e-38
4.5489058 -2.540853 1.5485526 1.2632589e-38
4.6508007 -2.5580659 1.551541 1.2632589e-38
4.7504048 -2.573571 1.5536476 1.2632588e-38
4.8488832 -2.5798764 1.5672245 1.2540751e-38
4.940691 -2.5882215 1.581292 1.2540751e-38
5.0153351 -2.5953674 1.5936341 1.2356358e-38
5.3183064 -2.5452945 1.5523586 1.235636e-38
3.1832283 -2.4620492 1.5125132 1.2724785e-38
3.247046 -2.4546537 1.5485493 1.2632591e-38
3.3353271 -2.4366925 1.5844736 1.2540395e-38
3.8938735 -2.4007695 1.5336399 1.2448198e-38
3.9455392 -2.4149513 1.5534892 1.2448198e-38
4.0517635 -2.4483125 1.5510037 1.2540394e-38
4.1498251 -2.4711223 1.5495448 1.2540394e-38
4.2449956 -2.490128 1.5548518 1.2540394e-38
4.301477 -2.4990096 1.576243 1.2540392e-38
5.2970643 -2.4598186 1.5393953 1.2632587e-38
5.305284 -2.4383457 1.5577536 1.2448197e-38
3.1943741 -2.3788729 1.5023597 1.2816982e-38
3.259815 -2.3733566 1.5176343 1.2632591e-38
3.3520725 -2.3525984 1.5429773 1.2540395e-38
3.444943 -2.3387995 1.5702494 1.2263448e-38
3.5498989 -2.3215795 1.5615965 1.1710272e-38
3.6535716 -2.3456237 1.5525408 1.2263808e-38
3.749742 -2.3714786 1.5496638 1.2356004e-38
3.844918 -2.3911769 1.5502505 1.2356004e-38
5.3500242 -2.3792646 1.5496887 1.2171969e-38
5.4459429 -2.3471847 1.5500941 1.2079411e-38
5.5498395 -2.3303871 1.5510013 1.1987216e-38
5.6437693 -2.3255405 1.5508269 1.1803185e-38
5.7494125 -2.3346744 1.5517379 1.1710989e-38
5.8537984 -2.343601 1.5550307 1.1710989e-38
5.9499483 -2.3493602 1.5495352 1.1618793e-38
6.0536971 -2.3499362 1.5560845 1.1526596e-38
6.1515889 -2.3372116 1.5517863 1.1434399e-38
6.2518997 -2.3266187 1.5284134 1.1250008e-38
6.3479261 -2.3161633 1.5194504 1.1157454e-38
6.4521117 -2.3165343 1.5223944 1.0973423e-38
6.5383148 -2.3098247 1.5158873 1.0143662e-38
3.3805008 -2.2901113 1.5091439 1.2540392e-38
3.4503736 -2.2830067 1.523154 1.2355641e-38
3.5166628 -2.2558506 1.5552688 1.2816979e-38
6.0872521 -2.2938504 1.5983353 1.0973421e-38
6.1716771 -2.2812366 1.5891429 1.0973421e-38
6.2531414 -2.2746725 1.574638 1.0880507e-38
6.3494191 -2.2773516 1.5700958 1.0603921e-38
6.4666939 -2.2540662 1.5722644 1.0142943e-38
6.5347276 -2.2641621 1.5419791 9.1291498e-39
3.2881458 -2.1054568 1.5918423 1.3738938e-38
3.3562622 -2.1265254 1.5796163 1.346199e-38
3.4497428 -2.1509898 1.5789726 1.3277957e-38
3.5478365 -2.1438129 1.5840558 1.3278316e-38
3.6489186 -2.1282926 1.5897225 1.3278315e-38
3.7457786 -2.1185958 1.5926524 1.3370152e-38
3.8391061 -2.1139793 1.5965801 1.3462349e-38
6.3428569 -2.1187198 1.5541185 1.0880509e-38
6.4382076 -2.1713064 1.5478375 1.041989e-38
3.1691847 -2.0245867 1.5766214 1.4384306e-38
3.2521036 -2.0469494 1.5583501 1.4015524e-38
3.346638 -2.0553482 1.5455061 1.3831131e-38
3.4509101 -2.0481479 1.5466069 1.3555263e-38
3.5448871 -2.0489039 1.5568802 1.3554902e-38
3.6542766 -2.0469551 1.5719783 1.383149e-38
3.7470136 -2.0463645 1.5816526 1.4015522e-38
3.836154 -2.0461271 1.5905591 1.4015522e-38
3.9468896 -2.0215468 1.5934899 1.4292468e-38
4.0288801 -2.0135305 1.5962783 1.4384305e-38
5.035624 -2.0029061 1.5982671 1.4015158e-38
5.1787972 -2.005059 1.5913979 1.355418e-38
5.2513871 -2.0198691 1.5877913 1.3277593e-38
5.3361511 -2.0183969 1.5935414 1.3277593e-38
5.4599485 -2.0118451 1.5832218 1.2817334e-38
5.5569882 -2.02405 1.5801921 1.2632582e-38
5.652276 -2.0320394 1.5778453 1.2540028e-38
5.754487 -2.034718 1.5773324 1.2263798e-38
5.8495245 -2.0522954 1.5877111 1.1895016e-38
5.9435363 -2.039001 1.5948784 1.2171247e-38
6.083313 -2.0106595 1.5850185 1.1618074e-38
6.1576924 -2.0272362 1.5501096 1.1249292e-38
6.2510686 -2.0715232 1.5511279 1.1064901e-38
6.3035517 -2.0979955 1.5732841 1.1249292e-38
2.9765799 -1.9135847 1.577175 1.6136032e-38
3.0575166 -1.9381886 1.5483458 1.5121874e-38
3.1466825 -1.9616882 1.528641 1.4568696e-38
3.2501986 -1.9618392 1.5131364 1.4200272e-38
3.3459508 -1.9593669 1.5124077 1.4200633e-38
3.4482319 -1.9505371 1.5268455 1.4200633e-38
3.552896 -1.951629 1.5486289 1.4660892e-38
3.6504288 -1.9510713 1.5611318 1.493748e-38
3.7499878 -1.9498535 1.5654895 1.4937481e-38
3.8469017 -1.953029 1.5692593 1.4845283e-38
3.9477329 -1.9534675 1.5765985 1.4845283e-38
4.0513639 -1.9527572 1.5903771 1.4937837e-38
4.1425524 -1.928617 1.5946978 1.5398458e-38
4.2458091 -1.9030252 1.5986345 1.5859435e-38
4.3634624 -1.9055051 1.5989431 1.5859436e-38
4.4493089 -1.9158795 1.5899639 1.5214064e-38
4.5541391 -1.9307057 1.5888344 1.503003e-38
4.6469655 -1.9367741 1.5915973 1.4937836e-38
4.7516799 -1.9232388 1.5917176 1.5121508e-38
4.8506894 -1.9222859 1.5914159 1.4937477e-38
4.9625258 -1.9236774 1.5869342 1.4752726e-38
5.0491676 -1.9453026 1.5804087 1.4199549e-38
5.1524224 -1.9551753 1.569623 1.3738571e-38
5.2530022 -1.9411165 1.556061 1.3554179e-38
5.3531208 -1.9495767 1.5541806 1.3277592e-38
5.447052 -1.9497781 1.5438216 1.2909171e-38
5.5478735 -1.9472592 1.5419095 1.2816616e-38
5.6459332 -1.9514486 1.5485567 1.2724777e-38
5.751132 -1.9463321 1.5635263 1.2725135e-38
5.8522577 -1.9505637 1.5746034 1.2632941e-38
5.9590969 -1.9372823 1.5640718 1.2355998e-38
6.0421891 -1.9629016 1.550082 1.1710269e-38
6.1171913 -1.9907441 1.5212337 1.1433683e-38
2.8655403 -1.8317322 1.5328389 1.7334576e-38
2.9455762 -1.8712362 1.5336429 1.6043475e-38
3.0253747 -1.8909389 1.5093541 1.5305904e-38
3.3794317 -1.8635234 1.5044665 1.5306984e-38
3.4535627 -1.8436805 1.5191605 1.6228222e-38
3.551132 -1.8469237 1.526762 1.6227862e-38
3.6475503 -1.8509613 1.5295705 1.6136026e-38
3.7499192 -1.8509631 1.5327382 1.5951633e-38
3.846159 -1.8492748 1.5406569 1.5951632e-38
3.9492226 -1.8475665 1.5542647 1.6044186e-38
4.0461411 -1.8554595 1.5666879 1.6136742e-38
4.1478567 -1.8607792 1.5789255 1.6412612e-38
4.2497697 -1.8541963 1.5742799 1.6412609e-38
4.3503442 -1.8529038 1.5653019 1.6043828e-38
4.4501152 -1.858683 1.5611211 1.5675402e-38
4.5477319 -1.8600363 1.5608392 1.5767238e-38
4.6508555 -1.8498157 1.5578321 1.5859075e-38
4.749887 -1.8519342 1.5586991 1.5675044e-38
4.85286 -1.84057 1.5444782 1.530626e-38
4.9490085 -1.8528484 1.5379169 1.4845279e-38
5.0514317 -1.8533577 1.5296695 1.4476495e-38
5.1526093 -1.8532181 1.5231124 1.4291746e-38
5.2451482 -1.8525574 1.5150344 1.3830768e-38
5.3481274 -1.8504319 1.5118197 1.3554541e-38
5.4399972 -1.8568113 1.5180049 1.3462346e-38
5.5464659 -1.8497976 1.5314624 1.3462705e-38
5.6541467 -1.8454951 1.5424336 1.3370505e-38
5.7577271 -1.8468342 1.5494534 1.3370506e-38
5.8552356 -1.8405517 1.5378937 1.3001008e-38
5.9266624 -1.8817691 1.528457 1.2171247e-38
2.7853589 -1.7284085 1.5103602 2.2680844e-38
2.8599625 -1.7245253 1.5308409 2.3141463e-38
2.9562316 -1.7149017 1.5511749 2.341769e-38
3.01229 -1.7031982 1.5560824 2.3325853e-38
3.3854535 -1.7847121 1.5043043 1.7427844e-38
3.4495852 -1.7841822 1.5069891 1.7334929e-38
3.5467217 -1.7851499 1.5065515 1.7057984e-38
3.6483593 -1.785239 1.5060422 1.6873593e-38
3.7493122 -1.7753313 1.5117639 1.6965787e-38
3.8496542 -1.7676936 1.5187999 1.7058341e-38
3.9507327 -1.7660446 1.5223771 1.7334569e-38
4.0467539 -1.7657784 1.5226774 1.7426406e-38
4.1462984 -1.7735147 1.5240847 1.7057981e-38
4.2444415 -1.7713926 1.5176928 1.687359e-38
4.3497615 -1.7748443 1.5158705 1.6597001e-38
4.4533906 -1.7695317 1.5153553 1.6597e-38
4.5531001 -1.7677696 1.5173246 1.6688837e-38
4.6526713 -1.7663105 1.5175465 1.6689197e-38
4.753798 -1.7706177 1.5172688 1.632041e-38
4.8455524 -1.7811899 1.512489 1.5674682e-38
4.9467721 -1.7908787 1.5066469 1.5121504e-38
5.0779319 -1.7999616 1.5018091 1.4568335e-38
5.1549172 -1.7975031 1.5022674 1.4476139e-38
5.2578635 -1.7878656 1.5019045 1.4476138e-38
5.3655033 -1.7788399 1.504271 1.4199552e-38
5.4588237 -1.7579864 1.5111344 1.4384662e-38
5.5496325 -1.7458971 1.5171765 1.4569052e-38
5.6453218 -1.7566993 1.5290881 1.4292464e-38
5.7533083 -1.7665312 1.5282935 1.3831127e-38
5.8205905 -1.7903056 1.5220249 1.3185399e-38
3.0622685 -1.6850181 1.5490309 2.3234375e-38
3.1532588 -1.6464601 1.5491599 2.3326212e-38
3.2156749 -1.6110295 1.5545822 2.3326212e-38
5.446878 -1.6950009 1.5009139 1.5582848e-38
5.5130353 -1.6956956 1.5072047 1.5398457e-38
3.261821 -1.5793548 1.5499178 2.3234016e-38
3.3406458 -1.5337452 1.5402445 2.3049984e-38
3.4409888 -1.5176893 1.573827 2.056106e-38
3.5516317 -1.5130107 1.5835406 1.7795546e-38
3.6257184 -1.5079391 1.5898371 1.6966144e-38
3.390821 -1.4946831 1.5253165 2.3141819e-38
3.4391773 -1.4818317 1.5163753 2.2497169e-38
3.5550375 -1.4676765 1.5283939 1.8256528e-38
3.6600871 -1.4620553 1.5472687 1.834872e-38
3.7448902 -1.4489166 1.5431418 1.96391e-38
3.8480103 -1.45752 1.5357313 2.1298623e-38
3.9518611 -1.4596078 1.5324709 2.2128027e-38
4.0499768 -1.446316 1.5284493 2.2128385e-38
4.1443839 -1.4311796 1.5282813 2.157521e-38
4.2513728 -1.4213994 1.5414195 2.0561053e-38
4.3278933 -1.4169852 1.5016026 2.3234015e-38
4.1740842 -1.3965266 1.5157661 2.0653611e-38
4.2706776 -1.3652672 1.5596499 1.7242721e-38
4.3428116 -1.3484907 1.5541797 1.6689189e-38
4.4484582 -1.3353066 1.5385211 1.6597353e-38
4.5287671 -1.3199985 1.514145 1.6597353e-38
4.2625494 -1.2436857 1.5841327 1.4015511e-38
4.3465009 -1.2490691 1.5609511 1.4476489e-38
4.4521451 -1.2483437 1.5374923 1.4753795e-38
4.5307689 -1.2652785 1.5136747 1.5214775e-38
4.1935701 -1.1098832 1.5987113 1.3186109e-38
4.2568812 -1.149268 1.5797554 1.3646729e-38
4.3482022 -1.1493083 1.5412705 1.3923674e-38
4.4364347 -1.1706067 1.5165453 1.420062e-38
4.0944929 -1.0024347 1.5978594 1.254038e-38
4.1620474 -1.0384992 1.5766566 1.3001358e-38
4.2460046 -1.0526568 1.5386751 1.3278305e-38
4.3259201 -1.0755867 1.5131373 1.3647448e-38
4.0729346 -0.93652934 1.5724522 1.2448184e-38
4.1403608 -0.96031851 1.534803 1.2909162e-38
4.2174883 -0.98957622 1.5100726 1.3001358e-38
3.8542135 -0.81621468 1.5487112 1.0973053e-38
3.952764 -0.85357726 1.5567408 1.20794e-38
4.0286188 -0.88649106 1.5554581 1.2171597e-38
3.5848181 -0.70698792 1.5736011 9.3138886e-39
3.6491098 -0.72576338 1.5516758 1.0142569e-38
3.7501886 -0.76407588 1.5585883 1.0419157e-38
3.8205016 -0.79105288 1.5728618 8.7596358e-39
3.1678548 -0.61325753 1.5540984 9.1276995e-39
3.2463796 -0.6366635 1.54818 9.3120907e-39
3.3473701 -0.65823126 1.5503731 9.1284211e-39
3.4503889 -0.67596382 1.5557277 8.6681618e-39
3.5386288 -0.69404048 1.5492321 9.3135285e-39
2.863801 -0.51597041 1.5313022 9.7727087e-39
2.9401822 -0.54211295 1.5488158 9.496482e-39
3.0451391 -0.5743497 1.5487422 9.3120921e-39
3.1150193 -0.59635991 1.5503386 9.3120921e-39
2.779984 -0.4869636 1.5097057 9.9570986e-39
2.8116879 -0.49772501 1.5211477 9.9570986e-39
3.4758508 -0.11133032 1.511012 9.3131739e-39
3.5173302 -0.10403426 1.5253751 9.4057297e-39
3.5111282 -0.092382692 1.5118891 9.3131767e-39
2.7820332 0.4552303 1.5106039 9.9574601e-39
2.8486042 0.48507386 1.5282516 9.6815921e-39
2.8960004 0.5065394 1.5358802 9.5897566e-39
2.9515085 0.54440558 1.5494101 9.1287785e-39
3.0221226 0.57693976 1.5841289 9.4972023e-39
2.8982964 0.69532794 1.5024856 9.0355038e-39
2.9512148 0.65520054 1.5565897 9.3117306e-39
3.0076745 0.6046263 1.5846429 9.4046479e-39
2.8947341 0.7341516 1.5053377 8.9429495e-39
2.9246318 0.74622744 1.557399 8.9429481e-39
2.8983488 0.89604425 1.5032091 6.085622e-39
2.9512784 0.85034114 1.5510468 7.8369677e-39
2.7770257 0.93755949 1.5082028 9.7727171e-39
2.8548007 0.93906212 1.5239846 8.7592841e-39
2.9559431 0.93364602 1.5681697 7.8373278e-39
3.2982037 -2.9026747 1.6114632 1.3277597e-38
3.3245759 -2.9389968 1.6551529 1.3093206e-38
3.2872355 -2.8486545 1.6442534 1.2816979e-38
3.3077385 -2.8377228 1.6769589 1.2632588e-38
3.2822726 -2.7436123 1.6423285 1.2632591e-38
3.307225 -2.7767656 1.6763744 1.2632591e-38
3.2718461 -2.6573324 1.6472324 1.2632591e-38
3.3327599 -2.6343136 1.6768444 1.2540395e-38
5.0960002 -2.6003616 1.6027265 1.2540392e-38
5.1660705 -2.6069334 1.6078118 1.2356001e-38
5.2573118 -2.6136127 1.6264459 1.1526602e-38
5.3214731 -2.6194293 1.6113789 1.0880871e-38
3.2814336 -2.5671916 1.6112703 1.2540395e-38
3.3463292 -2.5463417 1.6539638 1.2448199e-38
3.4366558 -2.5191998 1.6840467 1.2356001e-38
4.3687453 -2.5057211 1.6267585 1.2356004e-38
4.4465008 -2.5074406 1.6358443 1.2263808e-38
4.55514 -2.5169311 1.6361269 1.2356004e-38
4.6519084 -2.5276921 1.6420963 1.2356002e-38
4.7481079 -2.5325167 1.637146 1.2356002e-38
4.8479452 -2.532944 1.6368532 1.2171611e-38
4.952136 -2.5421777 1.6469162 1.2079414e-38
5.049583 -2.5627465 1.6436162 1.2079416e-38
5.1469784 -2.5813971 1.6511347 1.1895024e-38
5.2682457 -2.5543435 1.6712726 1.1157819e-38
5.3108411 -2.5538526 1.6225742 1.1618437e-38
3.3615718 -2.468801 1.6182022 1.2540395e-38
3.4520731 -2.4470673 1.6518317 1.2171614e-38
3.5244582 -2.429256 1.684985 1.1802831e-38
3.9617677 -2.4104173 1.6320214 1.198722e-38
4.0536847 -2.4265847 1.6519682 1.1802827e-38
4.1491532 -2.4471226 1.6532531 1.1987219e-38
4.2516761 -2.469346 1.6539493 1.2079416e-38
4.3404312 -2.4878275 1.6654874 1.198794e-38
4.4572887 -2.4904816 1.6835408 1.1895024e-38
4.5500722 -2.4573593 1.6844329 1.1710632e-38
4.6507635 -2.4548151 1.6805489 1.1802827e-38
4.7443447 -2.4648011 1.6779702 1.1895023e-38
4.8453579 -2.4810457 1.6856633 1.1895023e-38
4.924921 -2.4917269 1.6904569 1.1710633e-38
5.2898235 -2.4652727 1.6624409 1.198722e-38
5.3055444 -2.4369543 1.6422466 1.2079414e-38
3.39679 -2.3997543 1.6024593 1.2724786e-38
3.4660771 -2.3678563 1.6286261 1.2171613e-38
3.5379033 -2.3432193 1.6416643 1.1710272e-38
3.6481802 -2.3252921 1.616436 1.1710632e-38
3.7508879 -2.337719 1.6237056 1.1895024e-38
3.8565984 -2.3568931 1.6437821 1.1895024e-38
3.9437973 -2.3600943 1.6645229 1.1895023e-38
4.0507603 -2.3533199 1.6847965 1.2079771e-38
4.1458883 -2.3483953 1.6924834 1.217125e-38
4.2312012 -2.3335719 1.697997 1.2079413e-38
4.3574204 -2.3186948 1.6897559 1.2079773e-38
4.4552059 -2.3438344 1.6879513 1.2079414e-38
4.5517087 -2.3533504 1.6907214 1.1987219e-38
4.6351738 -2.3476651 1.6968048 1.2263804e-38
4.733624 -2.31689 1.6975145 1.1618435e-38
5.2842517 -2.3632684 1.6755958 1.1803186e-38
5.3438625 -2.3561172 1.6514347 1.1618433e-38
5.4491534 -2.3388143 1.6530899 1.1433683e-38
5.5490012 -2.3215992 1.6497507 1.1341486e-38
5.6410117 -2.3102369 1.6400793 1.1157454e-38
5.7538023 -2.3116021 1.6289245 1.0881227e-38
5.8556657 -2.3126538 1.6280863 1.0973425e-38
5.9464054 -2.3190765 1.6324142 1.0973424e-38
6.0363312 -2.3179619 1.6246966 1.1065618e-38
3.3688476 -2.2209303 1.667819 1.3554544e-38
3.4530711 -2.2526839 1.6461446 1.2816619e-38
3.5474815 -2.2645032 1.6216908 1.2447837e-38
3.6488392 -2.2560833 1.6215661 1.2356002e-38
3.7471318 -2.2576756 1.638131 1.2264164e-38
3.8532054 -2.2574759 1.650105 1.2448195e-38
3.950314 -2.2525747 1.6512307 1.2540391e-38
4.0473471 -2.251256 1.6592212 1.2724782e-38
4.1501603 -2.247582 1.6676775 1.2909173e-38
4.2521114 -2.2503273 1.6674225 1.2817337e-38
4.3510227 -2.2531102 1.6671196 1.2724784e-38
4.4477897 -2.2559335 1.670855 1.2632588e-38
4.5468636 -2.2529714 1.6729872 1.2725141e-38
4.6508689 -2.2495537 1.6814891 1.2632587e-38
4.745863 -2.2397358 1.6870662 1.2724784e-38
4.8489904 -2.2387586 1.6876985 1.2448555e-38
4.926785 -2.2626009 1.6969779 1.2171967e-38
5.0678077 -2.2144213 1.688861 1.3001368e-38
5.1513863 -2.241468 1.686754 1.2816976e-38
5.2479739 -2.2569563 1.6912595 1.2448194e-38
5.3481927 -2.2528231 1.6941615 1.1802823e-38
5.4504986 -2.2612898 1.6946018 1.1618072e-38
5.5490303 -2.2641597 1.6934412 1.1525876e-38
5.6546497 -2.2714419 1.6863372 1.1434042e-38
5.7497334 -2.2718854 1.6792728 1.060464e-38
5.8573546 -2.2590189 1.6807247 1.0328052e-38
5.9354014 -2.2579782 1.6637917 1.1342205e-38
6.0488973 -2.2610683 1.6308525 1.0696836e-38
6.1477251 -2.2451727 1.6156188 1.0512083e-38
6.2573581 -2.2283053 1.6158791 1.0235497e-38
6.3551326 -2.229924 1.6104416 1.0235137e-38
6.4485769 -2.2268608 1.6081167 1.0419531e-38
3.1912036 -2.102586 1.6942295 1.3923332e-38
3.2590575 -2.133074 1.6569016 1.4292112e-38
3.339478 -2.1727023 1.632696 1.3646383e-38
3.4232059 -2.1901305 1.6050162 1.2908815e-38
3.5717599 -2.1876533 1.6032687 1.3093566e-38
3.6574779 -2.1788244 1.6070338 1.2909173e-38
3.7553983 -2.1654031 1.6117303 1.3093923e-38
3.8506429 -2.1637101 1.6141627 1.3093565e-38
3.9526577 -2.1440465 1.6213274 1.337051e-38
4.0517387 -2.1426811 1.6280804 1.3462706e-38
4.1460905 -2.1469653 1.6281406 1.337051e-38
4.2488542 -2.1445732 1.6341692 1.3462349e-38
4.3550634 -2.1430454 1.6410664 1.3370153e-38
4.4491749 -2.1478519 1.6467886 1.3370152e-38
4.5565534 -2.1437693 1.664251 1.3554544e-38
4.6479216 -2.1466997 1.6663207 1.3554544e-38
4.743072 -2.1549683 1.6690816 1.3462347e-38
4.8534575 -2.1418312 1.676832 1.3646377e-38
4.9503884 -2.1481557 1.6731654 1.3369791e-38
5.0461407 -2.1556873 1.6668661 1.3093563e-38
5.1466279 -2.1517456 1.6644808 1.3093562e-38
5.2451534 -2.1506205 1.6644531 1.3093202e-38
5.3491879 -2.1536994 1.6650965 1.2908809e-38
5.4450321 -2.1594014 1.6629632 1.2632225e-38
5.5472817 -2.1522143 1.6603487 1.2355638e-38
5.6451998 -2.1469674 1.6584814 1.189538e-38
5.7534075 -2.148001 1.6531885 1.1158173e-38
5.8494439 -2.1583736 1.6407722 1.1065257e-38
5.9444299 -2.1543806 1.6254789 1.0696115e-38
6.0435696 -2.1572535 1.6196889 1.1157096e-38
6.1562076 -2.1600919 1.6256218 1.0788673e-38
6.2508545 -2.1533659 1.625402 1.0696117e-38
6.3546929 -2.1656971 1.6265036 1.0327334e-38
6.4257307 -2.1840775 1.6083889 9.8663561e-39
3.0806458 -2.0137377 1.6546979 1.6227867e-38
3.1485794 -2.0521693 1.6481421 1.5029321e-38
3.2161593 -2.08728 1.6261377 1.4384306e-38
3.8800409 -2.0725546 1.6043394 1.383113e-38
3.951669 -2.0736411 1.6092631 1.3923685e-38
4.0544982 -2.0616565 1.6090786 1.4015881e-38
4.1486239 -2.0518985 1.6150423 1.4107718e-38
4.249444 -2.0495217 1.6269655 1.4199914e-38
4.3507147 -2.0560911 1.6392167 1.4291751e-38
4.4484282 -2.0435193 1.6449301 1.4384306e-38
4.5484695 -2.0526397 1.644685 1.4199912e-38
4.6484413 -2.0509653 1.6410439 1.4107715e-38
4.7489815 -2.0502605 1.6380916 1.4107355e-38
4.8510537 -2.0497792 1.6312921 1.4015161e-38
4.9513431 -2.0484223 1.6300373 1.3830768e-38
5.0461998 -2.0428376 1.6258417 1.3647096e-38
5.1486368 -2.0467408 1.6211363 1.3554179e-38
5.2453995 -2.0614109 1.6198606 1.3277593e-38
5.3561063 -2.0623648 1.6138133 1.3093202e-38
5.4545045 -2.0593367 1.6174526 1.3093562e-38
5.5522561 -2.0707285 1.6201867 1.2632942e-38
5.6509557 -2.0846002 1.6142114 1.2171964e-38
5.7477107 -2.0870731 1.6086302 1.2171245e-38
5.9775271 -2.0825951 1.6040045 1.1618072e-38
6.0521483 -2.0504026 1.6100497 1.189502e-38
6.1441851 -2.0620563 1.6170555 1.1618435e-38
6.2174807 -2.0854886 1.6145725 1.1064901e-38
2.9759181 -1.9313636 1.613591 1.7795196e-38
3.0484941 -1.9772457 1.6223209 1.6043476e-38
4.1557908 -1.9730014 1.6053426 1.4753089e-38
4.249774 -1.9534431 1.6107478 1.5214067e-38
4.3521237 -1.9514349 1.6164132 1.5306261e-38
4.449008 -1.9655533 1.615997 1.5029314e-38
4.5417604 -1.9767586 1.6138961 1.4660889e-38
4.643291 -1.9843533 1.6081462 1.4476498e-38
4.7481661 -1.9734279 1.6053405 1.4660529e-38
4.8500876 -1.9743795 1.6104169 1.4568335e-38
4.9554434 -1.9725136 1.6106763 1.4476499e-38
5.0366335 -1.977095 1.6072598 1.4383942e-38
5.1081824 -1.9930689 1.6083891 1.3923321e-38
6.0311079 -1.9986179 1.6009952 1.2356357e-38
2.9779041 -1.7214049 1.6122361 2.3509886e-38
3.0217378 -1.7090408 1.6291403 2.3326212e-38
3.0725336 -1.6863871 1.637436 2.3234016e-38
3.1512697 -1.6548232 1.6443475 2.3234016e-38
3.2332351 -1.6235282 1.6455096 2.2958148e-38
3.351716 -1.6189675 1.6792099 2.0653975e-38
3.4450974 -1.6087255 1.6875219 1.9363235e-38
3.5463531 -1.6048381 1.6943989 1.8626027e-38
3.2615538 -1.5856181 1.6158108 2.2865953e-38
3.3467805 -1.5748733 1.6284807 2.120679e-38
3.4485102 -1.5686786 1.6377699 1.9363593e-38
3.5534635 -1.5625603 1.643856 1.8256883e-38
3.6519966 -1.5378383 1.6544266 1.6689194e-38
3.7056184 -1.5578296 1.6941566 1.4937477e-38
4.1867342 -1.5006669 1.6565123 1.7611148e-38
4.2441664 -1.5013092 1.6662459 1.733492e-38
3.6754589 -1.4620882 1.6487126 1.5398454e-38
3.7420025 -1.4240924 1.649229 1.4753082e-38
3.8503406 -1.4281778 1.654304 1.4753439e-38
3.9481292 -1.4390148 1.6613961 1.5122222e-38
4.0488811 -1.4581387 1.6661177 1.5767234e-38
4.1465821 -1.4824399 1.6684135 1.6596994e-38
4.2666221 -1.4497788 1.6606565 1.6044178e-38
4.302526 -1.4838293 1.6650808 1.687394e-38
4.1812406 -1.3414193 1.6863503 1.3554534e-38
4.2379069 -1.35229 1.6389799 1.4384655e-38
4.0988064 -1.2045393 1.6971127 1.3001359e-38
4.1604686 -1.2441158 1.6639968 1.3370142e-38
4.2212329 -1.2617846 1.6201422 1.3831121e-38
4.065331 -1.1365285 1.6767461 1.2632577e-38
4.1481285 -1.1543252 1.6344713 1.3185749e-38
4.2121453 -1.1679674 1.6036566 1.3554892e-38
3.9895668 -1.0199268 1.6940809 1.2078681e-38
4.0474343 -1.0481927 1.6578795 1.2355988e-38
4.125546 -1.0695788 1.6155922 1.2816967e-38
3.9835503 -0.94419688 1.6861649 1.1709899e-38
4.0273104 -0.95376325 1.6374137 1.2170877e-38
3.881675 -0.80725801 1.6620429 7.008279e-39
3.9623647 -0.8466385 1.6519082 1.0234767e-38
4.0097141 -0.87992203 1.6561408 1.1525506e-38
3.445102 -0.71483892 1.653157 9.3124481e-39
3.5497501 -0.73517615 1.6546402 8.9440271e-39
3.6552603 -0.74268615 1.6530626 8.5759648e-39
3.7537372 -0.76016635 1.6516213 9.1291372e-39
3.8286223 -0.78436196 1.6457937 9.0365814e-39
3.1519301 -0.61242086 1.6501501 9.588679e-39
3.2485344 -0.64564085 1.6513205 9.6812334e-39
3.3447151 -0.68047631 1.6517932 9.1280596e-39
3.4965553 -0.69966978 1.6091695 7.1004788e-39
2.9869945 -0.55760676 1.6149584 9.8652645e-39
3.0654626 -0.5830189 1.6368908 9.588679e-39
3.1005139 -0.59358287 1.6035881 9.4964848e-39
2.9741073 0.53381622 1.611849 8.7607148e-39
3.0446224 0.57784039 1.6345849 9.4053654e-39
2.9753432 0.65681756 1.6121712 9.4039234e-39
3.0300844 0.61568159 1.638371 9.4964778e-39
2.948833 0.77158308 1.604835 8.8507552e-39
2.9876275 0.84713662 1.6148361 8.2975829e-39
3.0042698 0.88033313 1.6329445 8.0209988e-39
2.9884515 0.93927097 1.6130774 7.9288031e-39
3.004694 0.93062007 1.6305717 7.6522177e-39
3.3820758 -3.0062277 1.7830263 1.2724423e-38
3.3416462 -2.9464104 1.7476041 1.2724423e-38
3.2973747 -2.859854 1.7144157 1.2540392e-38
3.3216319 -2.8459792 1.7489183 1.2448198e-38
3.2961369 -2.7126708 1.7187893 1.2540395e-38
3.3244824 -2.748266 1.7563322 1.2448199e-38
3.4215989 -2.7043004 1.7933668 1.2171613e-38
3.2922022 -2.6822588 1.7170765 1.2448199e-38
3.3543749 -2.6666875 1.7338607 1.2448199e-38
3.439064 -2.6424339 1.76914 1.2263808e-38
3.5115793 -2.6088717 1.7924737 1.1987221e-38
3.3894434 -2.5825334 1.7087408 1.2356004e-38
3.4581022 -2.5643694 1.729952 1.2263807e-38
3.5388129 -2.5413148 1.765179 1.1987219e-38
4.9877501 -2.5019503 1.7053982 1.1618436e-38
5.0551558 -2.5136049 1.7230201 1.1249655e-38
5.1568618 -2.5303726 1.7418493 1.0696483e-38
5.2344632 -2.5460827 1.7206742 1.0604288e-38
3.5556631 -2.4510252 1.749717 1.2356002e-38
4.1681461 -2.4121063 1.7051288 1.2355641e-38
4.2526045 -2.4301801 1.7081975 1.1618436e-38
4.354609 -2.4385564 1.7155713 1.1249653e-38
4.4476204 -2.4448698 1.7151201 1.1526959e-38
4.5106902 -2.4474592 1.7039211 1.1341849e-38
4.6743259 -2.4104626 1.7010456 1.1341849e-38
4.7511177 -2.42046 1.7078938 1.1434402e-38
4.8474994 -2.440767 1.7167593 1.171063e-38
4.9502544 -2.4630048 1.7294472 1.1618436e-38
5.0529652 -2.4540453 1.7546206 1.069648e-38
5.1552091 -2.4560473 1.7460654 1.1157101e-38
5.2443132 -2.4501126 1.7204239 1.1341492e-38
5.303596 -2.4384944 1.7075458 1.1434045e-38
3.4601276 -2.3398716 1.7630565 1.3646741e-38
3.529634 -2.3768761 1.7353566 1.2724785e-38
4.1573596 -2.3882699 1.7040905 1.2447837e-38
4.2496262 -2.3649209 1.7099531 1.1987219e-38
