# .PCD v0.7 - Point Cloud Data file format
VERSION 0.7
FIELDS x y z rgb
SIZE 4 4 4 4
TYPE F F F F
COUNT 1 1 1 1
WIDTH 1026
HEIGHT 1
VIEWPOINT 0 0 0 1 0 0 0
POINTS 1026
DATA ascii
2.8558173 0.94141996 -1.343293 4.9796416e-39
2.9211783 0.94176263 -1.3845253 5.532814e-39
2.4600184 0.063142456 -1.2071413 6.9146624e-39
2.4655802 0.1256824 -1.2082981 1.0790487e-38
2.4732583 0.48859346 -1.210302 5.7172052e-39
2.4970641 0.50225401 -1.215808 5.8094009e-39
2.5486276 0.55977601 -1.2319438 5.7172052e-39
2.5842712 0.61254507 -1.2294271 5.5324553e-39
2.6408718 0.66236025 -1.2483454 5.0718358e-39
2.680455 0.73600566 -1.2440368 4.9792801e-39
2.7146513 0.77629191 -1.2696015 5.3484213e-39
2.4905939 0.89933628 -1.200075 4.2417192e-39
2.6841097 0.85716391 -1.2071586 4.0573266e-39
2.745872 0.84854394 -1.2486011 4.4261077e-39
2.8098438 0.88220209 -1.2909374 4.0576839e-39
2.4733381 0.90657234 -1.2091918 6.8293107e-39
2.5578716 0.91345584 -1.228303 4.9814423e-39
2.6492286 0.92130774 -1.2515693 4.4271881e-39
2.7490313 0.91927123 -1.2672271 4.1498823e-39
2.8120906 0.91399115 -1.2913435 4.0576839e-39
2.2812192 -0.93816715 -1.1093895 2.3960088e-39
2.338294 -0.9525792 -1.1443988 7.0104636e-39
2.2753732 -0.87191021 -1.112612 7.7483874e-39
2.3054011 -0.8941052 -1.1312116 1.2905948e-38
2.2923033 -0.10153766 -1.1177706 1.8165426e-38
2.3111072 -0.1067089 -1.1315942 2.1023487e-38
2.278311 -0.073462643 -1.1126772 1.3554925e-38
2.2892039 0.031947728 -1.107988 1.0133201e-38
2.3630369 0.070039779 -1.1403167 6.6377098e-39
2.424355 0.068197154 -1.1827861 7.8362586e-39
2.2868555 0.1956207 -1.1129678 3.409425e-39
2.3577182 0.15210211 -1.1314082 7.654754e-39
2.4275174 0.13054769 -1.1779604 1.0329868e-38
2.2515004 0.24787328 -1.1047962 5.3451647e-39
2.2586417 0.36318418 -1.1061934 4.9792801e-39
2.2919004 0.40281212 -1.115032 5.0718358e-39
2.3576217 0.4369784 -1.1288363 5.1640315e-39
2.4379015 0.48036757 -1.1513817 5.255867e-39
2.4850652 0.51358706 -1.1437448 4.9785612e-39
2.5312414 0.56180978 -1.1555088 4.6097787e-39
2.5766425 0.63273418 -1.1384842 4.1480803e-39
2.6169217 0.67409968 -1.160929 4.240636e-39
2.5949442 0.75457191 -1.1046951 4.3328317e-39
2.636852 0.74787831 -1.1547964 4.1487991e-39
2.279932 0.86779439 -1.1118529 5.9945138e-39
2.3533194 0.8737331 -1.129148 4.7034163e-39
2.4511793 0.87940514 -1.143991 4.057328e-39
2.5519578 0.86900765 -1.1440804 3.5959897e-39
2.6474049 0.84130347 -1.1598164 3.6878238e-39
2.7043893 0.86126578 -1.1949131 4.1488033e-39
2.4499304 0.90232515 -1.1981537 3.0500102e-39
2.5612395 0.90063846 -1.1987684 3.9651324e-39
2.2401896 1.3971114 -1.1020423 1.1063476e-39
2.2642052 1.4379584 -1.1078113 1.1985418e-39
2.0884993 -0.90420514 -1.0120108 1.5676872e-39
2.1739843 -0.92487282 -1.0262591 3.4112397e-39
2.241112 -0.93005627 -1.0617573 2.0279451e-39
2.0558982 -0.89483178 -1.0054274 1.3832974e-39
2.1949184 -0.82577932 -1.0226876 2.0272235e-39
2.2221825 -0.85638607 -1.0530604 1.8442727e-39
2.0797107 -0.7248885 -1.0130078 1.401337e-38
2.1737425 -0.77949756 -1.0357069 4.5165013e-39
2.2013958 -0.79540908 -1.0777978 8.7585848e-39
2.1949444 -0.1019755 -1.0053713 1.3092854e-38
2.2172332 -0.10059487 -1.035821 1.3738231e-38
2.1902061 -0.0752239 -1.0186564 1.2629711e-38
2.2325766 -0.065155886 -1.0550755 1.2169455e-38
2.1912966 0.069763169 -1.0074029 2.8558883e-39
2.2315438 0.039191328 -1.0415535 7.8293852e-39
2.3112597 0.074373744 -1.0934137 5.9001392e-39
2.1947687 0.10912081 -1.0058188 3.9658512e-39
2.2492828 0.17073506 -1.0395074 4.7930811e-39
2.3234248 0.1477135 -1.0807828 7.1012271e-39
2.2382979 0.24794899 -1.0573846 9.3977829e-39
2.3120589 0.2883364 -1.0283116 4.1477089e-39
2.272362 0.35262901 -1.0655313 4.4257462e-39
2.3116 0.33876121 -1.0271786 4.1488005e-39
2.2939785 0.40473497 -1.0644331 4.5183019e-39
2.3505175 0.43912563 -1.0445336 4.7019743e-39
2.4200478 0.48585099 -1.0580268 4.6097787e-39
2.4708631 0.54017496 -1.0465611 4.6094172e-39
2.5108719 0.5827679 -1.0693979 4.2406346e-39
2.4964349 0.63742852 -1.0038127 4.5157726e-39
2.5439429 0.64953774 -1.0546652 4.701247e-39
2.491663 0.75780207 -1.0055981 4.3321058e-39
2.5519881 0.74958986 -1.0569304 4.7016114e-39
2.0973883 0.87260395 -1.0171438 3.6889014e-39
2.1396217 0.85614181 -1.0259786 3.6889014e-39
2.2524168 0.85413307 -1.0455686 3.5045115e-39
2.3475394 0.84481215 -1.0471884 3.0428145e-39
2.447228 0.83085036 -1.0502011 3.2268456e-39
2.5399954 0.82028461 -1.0694753 4.1488005e-39
2.1473932 0.95315111 -1.0299129 3.5041542e-39
2.063823 1.0946647 -1.0079634 3.7778516e-39
2.1713693 1.0554326 -1.0352707 3.5034325e-39
2.2059801 1.0275309 -1.0744457 3.13465e-39
2.085793 1.1280168 -1.013588 4.1462698e-39
2.1280084 1.1045208 -1.0280027 3.5945436e-39
2.1539683 1.2696289 -1.0314897 1.1056203e-39
2.0685103 1.3499511 -1.0095869 3.0428131e-39
2.181726 1.3297315 -1.0375484 1.3829344e-39
2.2191346 1.3742946 -1.0490264 1.1067077e-39
2.1833203 1.4114604 -1.0519878 2.3048879e-39
2.2495673 1.4272327 -1.074495 1.2907374e-39
2.088136 -0.90284997 -0.98357606 2.0290241e-39
2.1771998 -0.91597831 -0.95439273 7.5607563e-39
2.272105 -0.95161581 -0.92486608 1.5676858e-39
2.3360512 -0.92774141 -0.91781443 2.4878387e-39
2.4011946 -0.91748208 -0.90238571 7.1890843e-39
1.9625565 -0.86715555 -0.93750346 1.7524386e-39
2.0345113 -0.88576949 -0.96652752 1.7524386e-39
2.1807125 -0.8512966 -0.9550879 1.2722987e-38
2.2409432 -0.84435165 -0.93580806 1.0144032e-38
2.3460922 -0.85822368 -0.9317525 3.3175965e-39
2.4009185 -0.89341193 -0.90348083 7.5578682e-39
2.0789528 -0.71697217 -0.97212034 1.4105916e-38
2.1535823 -0.74797463 -0.94611245 1.4935316e-38
2.2514238 -0.76172858 -0.92446083 1.0418451e-38
2.3105588 -0.7903859 -0.92214102 7.8358929e-39
2.0730703 -0.67252153 -0.92726284 1.5578892e-38
2.1214805 -0.68815064 -0.92620647 1.6131704e-38
2.0835054 -0.12867953 -0.90541351 1.419812e-38
2.1273713 -0.11362446 -0.92391914 1.3552746e-38
2.1464577 -0.05268709 -0.93752569 1.2539659e-38
2.1734691 0.043167826 -0.9571563 6.7234034e-39
2.2162423 0.068863265 -0.93788695 2.1183261e-39
2.185847 0.16441151 -0.95285743 4.7912693e-39
2.2165778 0.1411283 -0.94705904 1.5662397e-39
2.1865332 0.22160329 -0.93675971 1.2253671e-38
2.2408216 0.25829366 -0.95582008 7.9241074e-39
2.3098965 0.28899026 -0.98567897 4.3324617e-39
2.2815764 0.35402021 -0.93380523 5.1629483e-39
2.3115044 0.345377 -0.9841488 4.6097759e-39
2.289567 0.41422835 -0.92460603 5.254425e-39
2.3384137 0.45499018 -0.95380306 5.2537062e-39
2.4046326 0.49450654 -0.99560761 5.7157647e-39
2.3811135 0.52101159 -0.93202925 5.1615049e-39
2.4310837 0.5640561 -0.9554798 5.0700268e-39
2.3725169 0.67667484 -0.91466498 5.0700282e-39
2.4491415 0.64146632 -0.95094502 6.082378e-39
2.5008461 0.65138882 -0.99605852 8.2943515e-39
2.2832758 0.77921611 -0.91213745 4.883846e-39
2.3453257 0.75062543 -0.93200558 5.5317266e-39
2.4473183 0.74890447 -0.97938037 4.9789115e-39
2.0968304 0.87849194 -0.94924253 2.9513364e-39
2.1359479 0.84720242 -0.94771934 2.7669451e-39
2.2450211 0.82219261 -0.95155734 2.9502588e-39
2.338392 0.80972332 -0.9746061 3.3190413e-39
2.4200401 0.80584753 -0.99169719 3.687821e-39
2.0947721 0.91320181 -0.91349918 2.7658675e-39
2.1246588 0.95230061 -0.95119607 3.0431747e-39
1.9881846 1.0782795 -0.94593829 7.7389931e-39
2.0569153 1.0846406 -0.93149579 4.6994394e-39
2.1290445 1.0467447 -0.95558846 3.1342899e-39
1.9936373 1.1241245 -0.96387947 1.0962218e-38
2.0229852 1.1399056 -0.93090332 9.1201156e-39
2.1104221 1.1028185 -0.99039489 3.9622471e-39
1.8778658 1.2855394 -0.9117716 5.3484227e-39
2.0728071 1.2636362 -0.92169148 5.3469794e-39
2.1364002 1.2598454 -0.94933635 1.1981789e-39
1.9674829 1.3146311 -0.9336161 7.2841708e-39
2.0371311 1.3153354 -0.94551122 7.0075839e-39
2.1644666 1.3260223 -0.97559208 2.3052495e-39
2.581964 -1.2090973 -0.81349337 1.9819891e-38
2.6519809 -1.2215914 -0.8196674 1.6869272e-38
2.7605741 -1.2435668 -0.83026057 1.8344039e-38
2.8272557 -1.2430925 -0.82066858 1.8067453e-38
2.3786197 -1.1200322 -0.81771863 1.5857281e-38
2.4481566 -1.12156 -0.81676716 1.8252927e-38
2.5529857 -1.1257532 -0.82740885 1.8621354e-38
2.6456573 -1.1351951 -0.82758445 8.756424e-39
2.7478809 -1.1399707 -0.83309072 1.502536e-38
2.8313596 -1.1561794 -0.81853437 1.9174163e-38
2.2866035 -1.0176871 -0.81182039 6.9117828e-39
2.353673 -1.0380752 -0.8366192 1.1058046e-38
2.4483383 -1.0504702 -0.86068457 1.898289e-38
2.565604 -1.0581442 -0.87421459 2.2491761e-38
2.6509988 -1.0453901 -0.85510719 2.2402089e-38
2.7504425 -1.0445839 -0.83487976 2.148085e-38
2.821619 -1.0448025 -0.81472385 2.1664525e-38
1.9965867 -0.90071183 -0.80073869 4.2417192e-39
2.0607738 -0.91518176 -0.82318288 4.4257504e-39
2.1488488 -0.94330359 -0.84332097 4.701617e-39
2.2551379 -0.97527343 -0.85895425 4.9774794e-39
2.3509932 -0.97322315 -0.88327849 3.8675263e-39
2.4398479 -0.94288832 -0.87968743 1.5290719e-38
2.5504146 -0.95106131 -0.86221838 1.6406842e-38
2.6543941 -0.93809998 -0.84531254 1.0681716e-38
2.7374775 -0.95287931 -0.81939238 1.2347731e-38
2.827487 -0.98847324 -0.8160975 2.111171e-38
1.876166 -0.84109962 -0.83760983 2.9513406e-39
1.9375666 -0.86160541 -0.83235329 3.6881853e-39
2.0226619 -0.89170128 -0.8375572 4.1491635e-39
2.3727379 -0.82919508 -0.87645614 9.1212044e-39
2.4327717 -0.8573423 -0.85669005 1.5021708e-38
2.5555203 -0.84335303 -0.8389225 9.9430744e-39
2.6433606 -0.87416697 -0.83365506 7.5420224e-39
2.7038624 -0.89731854 -0.80353755 7.7354268e-39
2.1859756 -0.70365661 -0.86984116 6.4536815e-39
2.2606313 -0.73748016 -0.85918409 7.3723896e-39
2.3503582 -0.75484467 -0.83760631 1.5568752e-38
2.4347463 -0.77321136 -0.81761986 1.6756518e-38
2.5074437 -0.7933985 -0.81072527 9.1082705e-39
1.9872063 -0.60273093 -0.83002025 1.1339701e-38
2.0663798 -0.63960278 -0.84507418 7.0986978e-39
2.1488926 -0.67308146 -0.83705449 6.1756555e-39
2.2457225 -0.67897207 -0.81297779 1.2340473e-38
2.3146212 -0.68642503 -0.80980307 1.492014e-38
1.8926468 -0.56439406 -0.80547303 3.6878224e-39
1.9512395 -0.58700842 -0.81274152 8.573832e-39
1.972008 -0.14249501 -0.80946475 5.1636755e-39
2.0763955 -0.12581761 -0.83814448 4.6101402e-39
2.1214957 -0.12117887 -0.8750236 8.6678241e-39
2.1683245 -0.047770668 -0.85243541 5.4366443e-39
2.179441 0.013617272 -0.864178 6.7241265e-39
2.2297425 0.062189609 -0.85199785 2.2094455e-39
2.1798129 0.18622379 -0.88193017 6.357509e-39
2.2220383 0.14706168 -0.84805632 1.7499093e-39
2.1772017 0.22047137 -0.88355339 1.2071821e-38
2.2238758 0.25067991 -0.84523553 5.1596959e-39
2.2426646 0.34906408 -0.84983349 4.7938e-39
2.2744236 0.43032485 -0.84789187 5.2540593e-39
2.3198061 0.47729638 -0.8615765 5.2536992e-39
2.2959967 0.51549697 -0.80267841 4.7880351e-39
2.3590994 0.54095429 -0.85374099 5.528121e-39
2.4098918 0.58087999 -0.88503414 6.1738478e-39
2.1916044 0.69650894 -0.80411857 4.8845607e-39
2.2603989 0.68055934 -0.82975924 5.6224817e-39
2.3478818 0.6504057 -0.85723245 5.6210383e-39
2.4154899 0.61979735 -0.88515133 6.358239e-39
2.0976105 0.7908541 -0.80494171 2.6736705e-39
2.146966 0.75320905 -0.82604921 4.1491579e-39
2.2398252 0.73257518 -0.86834919 4.4250245e-39
2.3117857 0.70572937 -0.8935892 4.7016072e-39
2.0786591 0.86349291 -0.84170765 3.4115942e-39
2.1278558 0.82482201 -0.86688995 3.503071e-39
2.2140622 0.80726981 -0.89246553 3.1346486e-39
2.0721459 0.94859034 -0.84167856 3.0424544e-39
2.1077185 0.97094196 -0.88600034 3.226847e-39
1.9965693 1.0695876 -0.87119287 8.1081329e-39
2.0468619 1.057678 -0.85161531 5.4370016e-39
2.1032794 1.010529 -0.89445215 3.0424558e-39
2.0410388 1.1382878 -0.84720749 9.21267e-39
2.1150737 1.1881994 -0.81731266 4.2380983e-39
1.6730945 1.2282699 -0.81194574 6.3625733e-39
1.7495968 1.2355807 -0.83220863 5.9937907e-39
1.8507251 1.2705548 -0.85168451 6.9150282e-39
1.9565138 1.28817 -0.83406663 8.3908785e-39
2.0526407 1.2526175 -0.84969056 6.5462457e-39
2.1258013 1.2227173 -0.83843511 3.1339227e-39
1.9521807 1.3046664 -0.88002098 8.0217373e-39
2.0015264 1.3002428 -0.89800817 7.6533135e-39
2.029038 1.5883042 -0.80613458 9.9582014e-39
1.9848374 1.648761 -0.80461699 6.2696532e-39
2.0676324 1.6518525 -0.8179608 9.7730899e-39
2.1139894 1.6866659 -0.81840342 1.0695046e-38
2.0808158 1.7373934 -0.83652562 8.8507707e-39
2.1535685 1.7536474 -0.83494377 1.0418458e-38
2.2109697 1.7873085 -0.81869596 1.0879798e-38
2.0971308 1.8736445 -0.80173141 1.1341126e-38
2.1585443 1.8430241 -0.82969803 1.041881e-38
2.2317462 1.8503997 -0.82850629 9.8652827e-39
2.1965153 1.9011804 -0.81226325 7.7447762e-39
2.2597692 1.9232233 -0.81703663 7.0994082e-39
2.3176069 1.9353889 -0.80492234 8.2975969e-39
2.849071 -1.2325361 -0.75542116 1.7421364e-38
2.4577589 -1.1431562 -0.79492235 2.0280872e-38
2.516902 -1.1497507 -0.79778981 1.8806464e-38
2.8681023 -1.1555617 -0.75328088 1.8436235e-38
2.9265392 -1.118744 -0.71892291 1.7606113e-38
2.1645203 -1.0085324 -0.76547468 5.622853e-39
2.2348468 -1.0276766 -0.78656894 5.9912754e-39
2.8570149 -1.0529327 -0.77777159 2.0834765e-38
2.9411588 -1.0469979 -0.73690784 1.8437315e-38
1.9731317 -0.90887809 -0.78226268 4.3331946e-39
2.0642614 -0.94682223 -0.77994359 4.6097815e-39
2.1290772 -0.96667266 -0.77227032 4.9782011e-39
2.2170761 -0.99057353 -0.79041356 5.622846e-39
2.7698755 -0.92574811 -0.7722187 6.2649798e-39
2.8463521 -0.94381845 -0.74142146 8.3887163e-39
2.9431221 -0.98514819 -0.73127949 1.7608275e-38
1.8900211 -0.87577194 -0.78518879 3.7818215e-39
1.9300795 -0.88304138 -0.7877779 4.0576881e-39
2.5837638 -0.80694795 -0.75753814 1.1607636e-38
2.6547384 -0.84454006 -0.76398033 7.6425067e-39
2.7384274 -0.88053215 -0.74975288 8.8439323e-39
2.8130896 -0.89446938 -0.71544468 1.2444241e-38
1.4709824 -0.73145825 -0.71272218 7.5712184e-39
1.5222565 -0.72817928 -0.72620451 9.3247346e-39
2.3766444 -0.70775574 -0.77117962 1.0495507e-38
2.4525435 -0.73676783 -0.7503947 1.1423608e-38
2.538873 -0.76876205 -0.73136169 1.474805e-38
2.0627687 -0.61110479 -0.78165811 4.5146964e-39
2.1474664 -0.62456024 -0.77913237 1.2157895e-38
2.262151 -0.62586343 -0.78295952 7.0867951e-39
2.3452754 -0.64982665 -0.74597597 4.7855197e-39
2.4278541 -0.69382203 -0.70356548 1.3904605e-38
1.786548 -0.51276004 -0.75514734 3.5956296e-39
1.8518169 -0.52437192 -0.7445544 4.0566063e-39
1.9443315 -0.54756236 -0.74437869 5.8997958e-39
2.0581694 -0.5536657 -0.7507481 1.2720825e-38
2.1357863 -0.53298336 -0.74893349 1.5849706e-38
2.2708433 -0.54499489 -0.75173384 7.907921e-39
2.3358827 -0.55492127 -0.72218299 8.644763e-39
1.7891529 -0.46913546 -0.7417829 3.5956296e-39
1.8470497 -0.45602304 -0.73524719 3.8722165e-39
1.9439248 -0.45622987 -0.74061203 4.2406374e-39
2.0448864 -0.43471935 -0.76416832 4.5175859e-39
2.1626663 -0.46011564 -0.7681641 1.1800315e-38
2.2579145 -0.44750401 -0.74804556 1.1232363e-38
2.3090506 -0.43753567 -0.71538901 1.3600989e-38
1.8815627 -0.39373782 -0.74347299 3.9644121e-39
1.949074 -0.38760009 -0.76040292 4.1488033e-39
2.0675786 -0.36674744 -0.78103185 4.4253902e-39
2.155483 -0.34710753 -0.78074712 6.7299194e-39
2.2389572 -0.35771462 -0.76500863 1.6400357e-38
2.3247614 -0.34906343 -0.72944427 1.5805755e-38
1.8424537 -0.2079059 -0.70337957 3.9647708e-39
1.9558336 -0.21109036 -0.71077669 4.8863656e-39
2.0749874 -0.21604098 -0.73260003 1.309177e-38
2.153815 -0.25776976 -0.74923944 1.3184323e-38
2.2515314 -0.24857067 -0.7389971 1.3815976e-38
2.350229 -0.25056031 -0.72305787 5.7071888e-39
1.6954281 -0.18516593 -0.71175498 4.057328e-39
1.7678287 -0.18508886 -0.73719156 4.057328e-39
1.8476143 -0.17665522 -0.73293829 4.4253902e-39
1.9346774 -0.15122139 -0.74738014 6.0841899e-39
2.0559146 -0.15763421 -0.74285102 1.0508486e-38
2.1464553 -0.12994577 -0.76014239 1.1702325e-38
2.2483177 -0.14692333 -0.74202061 1.2897616e-38
2.3671594 -0.15608895 -0.73089194 4.5162182e-39
2.4271379 -0.13133687 -0.71320814 2.7669969e-39
2.1761606 -0.057169691 -0.77418852 7.36914e-39
2.2375782 -0.047963269 -0.73996168 1.013284e-38
2.36832 -0.050308026 -0.72816777 2.3038089e-39
2.44028 -0.051657394 -0.70820159 4.9800003e-39
2.1965325 0.041573521 -0.77267867 1.2989064e-38
2.2379115 0.047674738 -0.75570542 8.845698e-39
2.3544939 0.048731714 -0.73885393 5.2526132e-39
2.4442496 0.057546951 -0.72161639 3.4101579e-39
2.5044553 0.059202626 -0.70371264 4.3328331e-39
2.1878471 0.15578771 -0.74530345 1.3083063e-38
2.2333038 0.15448588 -0.75013101 3.3161532e-39
2.3565776 0.12895866 -0.72834373 2.028664e-39
2.4452865 0.13680516 -0.70966977 3.780374e-39
2.5396485 0.13476916 -0.71402758 7.2834464e-39
2.1573319 0.24900335 -0.73200262 1.086858e-38
2.2149694 0.24675275 -0.78758973 4.695838e-39
2.1457767 0.3466641 -0.73702854 8.4765497e-39
2.2099495 0.34955916 -0.79014194 4.9763892e-39
2.0988464 0.45659921 -0.70246571 1.7800197e-38
2.1269252 0.44580185 -0.72476 1.2988711e-38
2.2343192 0.44411716 -0.78382957 5.0635388e-39
2.1252928 0.55087805 -0.71997446 1.4370558e-38
2.2507691 0.55063385 -0.78040236 6.2577449e-39
2.0844109 0.66134107 -0.70984715 1.2064224e-38
2.1422803 0.66580886 -0.74928576 6.8163249e-39
2.2368031 0.65311581 -0.78505206 5.3412074e-39
2.0886054 0.76376635 -0.74201262 3.5916555e-39
2.1115394 0.7321319 -0.77361369 3.5023493e-39
2.0710566 0.85183954 -0.75277573 2.6722271e-39
2.0381444 0.95026237 -0.74850661 2.3956444e-39
2.0256901 1.0436021 -0.75101382 3.2246764e-39
1.747858 1.1959004 -0.71006554 5.0707568e-39
2.077163 1.138428 -0.74678475 5.1586155e-39
2.1163497 1.1812767 -0.75529122 3.5923743e-39
1.4875593 1.2083153 -0.71828014 6.3629334e-39
1.564231 1.2292389 -0.7325874 5.8093995e-39
1.6470631 1.2218074 -0.7458275 5.440617e-39
1.7338831 1.2156397 -0.75449854 5.255867e-39
1.8581682 1.2476234 -0.75410336 8.2979626e-39
1.9513615 1.2442378 -0.74773508 9.1284422e-39
2.0412817 1.2172633 -0.75864816 8.11357e-39
2.1337566 1.2157712 -0.76342702 3.2253995e-39
1.5950071 1.3039142 -0.73360449 9.6823306e-39
1.6416476 1.3380282 -0.71817994 9.9585559e-39
1.711597 1.374216 -0.70647943 6.0863451e-39
1.6954932 1.404296 -0.73356587 1.0049674e-38
1.7346122 1.4398437 -0.73766875 1.0234065e-38
1.9872215 1.4852828 -0.71280897 1.0972356e-38
2.0162716 1.4914008 -0.70389527 1.1156747e-38
1.8107967 1.5120282 -0.76671267 9.8652841e-39
1.9863086 1.5265549 -0.76234943 1.0695765e-38
2.0425646 1.5565972 -0.73639423 1.106455e-38
2.1031835 1.5948572 -0.70644379 1.1433331e-38
2.0813227 1.6195308 -0.76934361 1.0972353e-38
2.1323793 1.6580925 -0.74201685 1.124894e-38
2.1802723 1.7222562 -0.75935537 1.1340057e-38
2.2256777 1.7687725 -0.74418205 1.1340055e-38
2.0967383 1.8832047 -0.78909671 1.2355995e-38
2.1283743 1.8795419 -0.78144628 1.1618069e-38
2.264739 1.833052 -0.75986814 1.0971273e-38
2.3214257 1.8765208 -0.73401481 1.0878716e-38
2.1790123 1.9349775 -0.75665915 5.9930621e-39
2.2384329 1.947455 -0.73816419 7.0983236e-39
2.3556399 1.9575619 -0.75059819 5.8072345e-39
2.4082441 1.9492953 -0.71505445 6.0820193e-39
2.1796615 -1.7106199 -0.60723877 1.418933e-38
2.202378 -1.7206945 -0.60140079 1.4097853e-38
1.9973456 -1.6026969 -0.60221988 1.391239e-38
2.0730171 -1.6405269 -0.62241215 1.391239e-38
2.1515439 -1.6613466 -0.62237918 1.3821635e-38
2.2076712 -1.6770312 -0.60487694 1.33621e-38
1.9730998 -1.5750568 -0.60521209 1.3820194e-38
2.070658 -1.5306536 -0.61793369 7.6464205e-39
2.1411872 -1.5444866 -0.61569721 6.9085177e-39
2.2040133 -1.5405512 -0.60507238 7.4642335e-39
1.9615718 -1.4336923 -0.60954398 7.556785e-39
2.0533242 -1.4798666 -0.62942332 7.7415336e-39
2.1214266 -1.4914539 -0.62675023 6.8181438e-39
2.8841794 -1.2180365 -0.68436259 1.6683436e-38
2.9579387 -1.2230202 -0.64551467 1.3273637e-38
3.007658 -1.2071291 -0.62069178 1.2258758e-38
2.8878846 -1.1789818 -0.68649298 1.6867826e-38
2.9499598 -1.151237 -0.67670763 1.4748043e-38
3.0215058 -1.1481849 -0.63797289 1.3362926e-38
2.9793961 -1.0366126 -0.67080474 1.7236235e-38
3.0089726 -1.0598891 -0.63993549 1.5021359e-38
2.8768461 -0.914042 -0.67765856 1.5025718e-38
2.9585989 -0.95345247 -0.64587784 1.3732071e-38
2.5918603 -0.80206615 -0.69172335 1.8991212e-38
2.6565368 -0.81481391 -0.68849522 1.7424243e-38
2.7530329 -0.83513081 -0.65866268 1.6131703e-38
2.8389213 -0.8554824 -0.6378274 1.5577801e-38
2.9327629 -0.85141772 -0.62100834 1.3361472e-38
1.2693208 -0.74202335 -0.61285675 8.9523522e-39
1.3494807 -0.72434515 -0.63071024 9.8735854e-39
1.4534911 -0.7309767 -0.65166783 8.2158675e-39
1.5120273 -0.72848064 -0.67382753 1.2920723e-38
2.4942596 -0.70121688 -0.68667221 1.6664711e-38
2.5605345 -0.74480128 -0.68213373 1.954186e-38
2.6512277 -0.74875492 -0.66870594 1.6593399e-38
2.7386243 -0.75239927 -0.64221025 1.4655847e-38
2.8561454 -0.73654807 -0.62183106 1.2532806e-38
2.9151626 -0.76945508 -0.61728877 1.1517201e-38
2.3873432 -0.63258243 -0.69483143 7.6424983e-39
2.4506066 -0.64498097 -0.67180943 1.4433631e-38
2.544781 -0.65375543 -0.64783943 1.6758692e-38
2.6499519 -0.65406847 -0.64463151 1.1244609e-38
2.7587702 -0.65648776 -0.63866991 1.124352e-38
2.8319414 -0.66542637 -0.6214627 1.0779643e-38
2.3784387 -0.54822403 -0.67967063 8.3652936e-39
2.4410028 -0.55356753 -0.64555633 8.1816226e-39
2.5452039 -0.55358708 -0.63622749 8.8356254e-39
2.6555288 -0.55091733 -0.64772236 1.1785151e-38
2.7354991 -0.55303794 -0.62620234 1.1054426e-38
1.2952226 -0.4077096 -0.61922413 2.2119706e-39
1.3100586 -0.42613962 -0.62499386 1.9353838e-39
2.3447983 -0.44630542 -0.67667884 1.396869e-38
2.4512918 -0.4508872 -0.65265965 1.2138092e-38
2.5530941 -0.44329149 -0.63295406 1.2321048e-38
2.645952 -0.46551058 -0.62624222 1.343279e-38
2.7138407 -0.48499784 -0.61331832 1.0961513e-38
1.2695284 -0.36921686 -0.61123085 2.6722257e-39
2.3717873 -0.3514387 -0.68061072 1.0478945e-38
2.4519603 -0.34908837 -0.64634281 7.2647208e-39
2.531199 -0.35757634 -0.61734748 5.3343789e-39
1.2804834 -0.24312215 -0.61660182 6.0820081e-39
1.313277 -0.23215738 -0.61775035 5.8061429e-39
1.8727173 -0.21009497 -0.69656265 3.7800194e-39
1.9060498 -0.21091613 -0.69843376 4.2409962e-39
2.3865879 -0.26056483 -0.68375611 4.7881374e-39
2.4299121 -0.24613687 -0.63418627 3.8719502e-39
1.2900373 -0.16542892 -0.60712838 2.9513364e-39
1.3373382 -0.17269094 -0.61103868 3.965131e-39
1.8790482 -0.18870266 -0.69677323 4.8860082e-39
1.9063046 -0.19306925 -0.69783545 5.1629539e-39
2.3991942 -0.19972554 -0.69915271 3.5038852e-39
2.4498439 -0.16426337 -0.65703243 2.9517623e-39
2.5193791 -0.12306345 -0.63637114 1.8450196e-39
2.4789944 -0.041286483 -0.6910826 5.903037e-39
2.5314982 -0.052381326 -0.64612508 4.4239469e-39
2.4733708 0.055561099 -0.63912892 1.2600888e-38
2.5156775 0.043802116 -0.66169673 5.6206838e-39
2.1725519 0.19542632 -0.65583801 1.2078694e-38
2.248246 0.18526144 -0.66429871 5.4398953e-39
2.3620069 0.17489725 -0.64492124 6.8203032e-39
2.4441462 0.1402036 -0.64519006 7.8196882e-39
2.5276968 0.12589347 -0.68420392 8.8421274e-39
2.1370792 0.24948123 -0.64904535 1.4194116e-38
2.0975621 0.38170815 -0.67912257 4.8021013e-39
2.1111135 0.34479383 -0.64384365 1.3187185e-38
2.0872695 0.45113865 -0.66637284 4.7974112e-39
2.1162791 0.44857448 -0.6220144 1.6965425e-38
2.0894315 0.55067098 -0.66123468 3.414118e-39
2.1197798 0.55027139 -0.62307292 1.6688837e-38
2.0727642 0.65144068 -0.64918518 8.1113965e-39
2.1024702 0.60690737 -0.62295258 1.6873941e-38
1.9943886 0.7925666 -0.63985211 7.7397217e-39
2.0461404 0.75065762 -0.64723599 1.2257294e-38
1.9960245 0.81848073 -0.63795364 3.3165105e-39
2.028492 0.85193568 -0.64136463 1.1888518e-38
1.9969538 0.98928082 -0.65519351 1.3178139e-38
2.0202227 0.94954646 -0.64548737 6.9088821e-39
1.2547736 1.0624658 -0.60459363 3.5034339e-39
1.9965605 1.0135498 -0.65296966 1.3266004e-38
2.0179257 1.0493771 -0.64328331 5.8961847e-39
1.2909175 1.1067442 -0.60278016 3.5956282e-39
1.3541052 1.1653664 -0.60266012 3.7800208e-39
1.6767957 1.196987 -0.62885112 4.7030519e-39
1.7424127 1.1830182 -0.64592278 4.7023331e-39
1.8384017 1.1818577 -0.62333608 4.9789199e-39
1.9631352 1.1905012 -0.64389437 9.8634764e-39
2.0281856 1.1505287 -0.64527339 7.2816401e-39
1.3936385 1.2035691 -0.60851425 3.7800208e-39
1.4082893 1.2103615 -0.60971999 3.7800208e-39
1.5836897 1.2319317 -0.68590629 5.9019538e-39
1.6332426 1.2163545 -0.66353852 5.1640287e-39
1.705411 1.2012268 -0.69462299 4.7948902e-39
1.8708847 1.2133552 -0.67505461 8.7596596e-39
1.9459552 1.2144333 -0.65426522 9.5890602e-39
2.0203691 1.2406718 -0.61148202 9.4975848e-39
1.5828632 1.3739439 -0.66978127 3.7800208e-39
1.6505131 1.3318238 -0.69294035 8.1142874e-39
1.7071661 1.3577681 -0.69944268 5.6239306e-39
2.082551 1.3299501 -0.61866993 1.1064552e-38
2.1121404 1.3724203 -0.61884326 1.152553e-38
1.598394 1.4003907 -0.67101932 3.7800208e-39
1.6626074 1.4410945 -0.68723691 3.9644107e-39
1.7179995 1.4832813 -0.6930182 4.0566007e-39
1.9957573 1.4525502 -0.68638992 1.1064549e-38
2.0626342 1.4887254 -0.68911278 1.1156747e-38
2.1386011 1.4609122 -0.64210421 1.1617726e-38
1.7308854 1.5161248 -0.68990856 4.0566035e-39
2.0770261 1.5274873 -0.68378729 1.1341137e-38
2.1363289 1.544994 -0.63989717 1.1709918e-38
2.1683555 1.6382031 -0.66265452 1.1617721e-38
2.2216659 1.6670288 -0.6237995 1.1893948e-38
2.1960704 1.7030466 -0.6886639 1.143333e-38
2.2546942 1.7458996 -0.64681035 1.1801391e-38
2.3031542 1.7952285 -0.60984236 1.2078335e-38
2.2903922 1.8100525 -0.67252439 1.1616997e-38
2.3315475 1.8470283 -0.63971901 1.1801388e-38
2.1974087 1.9649024 -0.60980862 4.7919979e-39
2.2402186 1.9546374 -0.65351409 7.8315586e-39
2.3498838 1.9400964 -0.64819151 7.0968817e-39
2.4068682 1.9401569 -0.66146874 9.1262701e-39
2.2257574 2.0028582 -0.65791816 9.7633284e-39
2.0831766 -1.7107693 -0.52538985 1.4006026e-38
2.1542368 -1.7374356 -0.5498814 1.4189694e-38
2.256726 -1.7515694 -0.55007148 1.4281527e-38
2.3017418 -1.7695795 -0.53881353 1.5294598e-38
1.895795 -1.6018951 -0.50049156 1.4098579e-38
1.9599947 -1.6279383 -0.53304118 1.4190053e-38
2.0452497 -1.672179 -0.557585 1.4190051e-38
2.1570163 -1.6400313 -0.58206528 1.0780294e-38
2.2326226 -1.654238 -0.54464263 1.3453944e-38
1.6934569 -1.5034815 -0.53599936 1.3729086e-38
1.755986 -1.5261835 -0.52771509 1.4097864e-38
1.849957 -1.5521084 -0.5398742 1.4190056e-38
1.9251825 -1.5705413 -0.57527661 1.4096781e-38
2.1680183 -1.559664 -0.56404346 8.8471399e-39
2.2055664 -1.5703013 -0.54972112 1.041444e-38
1.6890258 -1.4990624 -0.53728032 1.3821283e-38
1.7594851 -1.4943326 -0.55587369 1.3820924e-38
1.8922364 -1.4084736 -0.57837605 8.2014033e-39
1.9438161 -1.4401964 -0.59216708 7.8322635e-39
2.0703003 -1.436391 -0.51783133 1.1708107e-38
2.1291411 -1.4812982 -0.5389623 1.1522275e-38
1.8756313 -1.388551 -0.58002812 8.2014286e-39
1.986642 -1.3586211 -0.50153643 8.4819839e-39
2.0203817 -1.3884979 -0.50690883 8.7585694e-39
2.9666615 -1.2248132 -0.54067469 1.2627908e-38
3.0114334 -1.2068428 -0.55059355 1.1797781e-38
2.9733722 -1.1356437 -0.52672327 9.0301018e-39
3.0167747 -1.1587232 -0.57169002 1.2718282e-38
2.9684436 -1.0417989 -0.53957433 1.2255852e-38
3.0062182 -1.0701883 -0.58215499 1.4929522e-38
1.0230668 -0.90689951 -0.50199723 1.0983533e-38
2.963789 -0.94987452 -0.5492714 1.3546228e-38
1.0562876 -0.83085269 -0.51028365 8.8626775e-39
1.1084713 -0.80795097 -0.5208478 8.7704833e-39
2.9442444 -0.85076213 -0.55078244 1.2992692e-38
1.1569141 -0.78711498 -0.53526747 8.0307532e-39
1.2454549 -0.75948733 -0.5501976 7.1059158e-39
1.3474503 -0.73432338 -0.54929352 1.1351243e-38
1.4389012 -0.72878641 -0.56236082 1.05222e-38
2.8885677 -0.71824157 -0.54769814 1.1055864e-38
2.9168725 -0.76842749 -0.55294347 1.1701592e-38
2.7930603 -0.60629487 -0.58654332 1.0870035e-38
2.8445542 -0.64912558 -0.54669088 1.0686362e-38
2.7746699 -0.54064304 -0.56445885 1.0316864e-38
2.8178039 -0.56755525 -0.52490366 1.0040277e-38
1.2975582 -0.40515223 -0.59079647 2.3963619e-39
1.3016864 -0.41642681 -0.59394377 1.7509925e-39
2.5967653 -0.40830463 -0.59777778 6.1698863e-39
2.6602643 -0.41953498 -0.56491119 9.02939e-39
2.7469363 -0.46556613 -0.54592323 8.8428253e-39
1.2608192 -0.33820862 -0.57500178 3.501985e-39
1.3062602 -0.37992802 -0.57250345 2.3967234e-39
2.5653086 -0.34098321 -0.55449146 3.6867994e-39
2.6171777 -0.39025974 -0.54271168 6.9110849e-39
1.1957114 -0.28495446 -0.5819332 4.4217721e-39
1.2590306 -0.27094159 -0.56762731 4.9763864e-39
1.3098128 -0.22450772 -0.5528993 3.4105082e-39
2.4927471 -0.25178257 -0.59649086 4.4305708e-39
2.533926 -0.24822137 -0.55056942 2.214926e-39
1.2670152 -0.14190017 -0.59704357 2.8587862e-39
1.324646 -0.18992826 -0.56097198 2.5818322e-39
2.498806 -0.19179505 -0.59840316 3.5075047e-39
2.532191 -0.15007134 -0.55242521 2.4885884e-39
2.4864924 -0.018861124 -0.52187836 1.1887122e-38
2.5334322 -0.0577593 -0.55721527 5.8965574e-39
2.4690869 0.047564194 -0.55801338 1.4992938e-38
2.54724 0.054040071 -0.52935016 9.6675371e-39
2.6148946 0.089200921 -0.51131177 1.1144808e-38
2.1858335 0.19429459 -0.54713452 1.7794819e-38
2.2447202 0.18777581 -0.54689699 7.7447748e-39
2.3547492 0.16512935 -0.55705208 5.3419263e-39
2.4352872 0.13228229 -0.56034309 8.8338332e-39
2.5602541 0.14315273 -0.54555196 1.2809394e-38
2.6355977 0.13678949 -0.53475332 1.4376343e-38
2.1434572 0.24990362 -0.54941601 7.4700012e-39
2.1152549 0.34919968 -0.54911655 7.9309822e-39
2.1193037 0.44934261 -0.54928124 8.2997647e-39
2.1206853 0.55135798 -0.55034924 8.392682e-39
2.0846684 0.64948618 -0.55862749 9.5890588e-39
2.1106946 0.63358206 -0.53795266 4.6119381e-39
2.0622971 0.75172007 -0.56943274 1.0787599e-38
2.1621587 0.73310554 -0.55135101 2.1212156e-39
2.2300084 0.76612031 -0.52948678 1.6591556e-39
2.0593956 0.85539454 -0.55271631 1.0512465e-38
2.149272 0.84535635 -0.52411735 1.3865554e-39
2.232969 0.82912469 -0.53136671 1.7520757e-39
2.0341523 0.94931167 -0.55074251 3.2286771e-39
1.2627317 1.0569996 -0.58716506 3.6878224e-39
1.3021177 1.0976104 -0.57481796 3.9644093e-39
2.0268717 1.0499423 -0.55136871 3.1390193e-39
1.2988729 1.1014333 -0.59493399 3.5956282e-39
1.3230698 1.1304334 -0.59178865 3.7800208e-39
1.675481 1.196426 -0.59296846 4.9796388e-39
1.7420169 1.1828368 -0.58298731 4.2409962e-39
1.8339114 1.1824379 -0.58738542 3.780018e-39
1.9010512 1.1993181 -0.59512675 4.3331946e-39
2.0241144 1.147436 -0.55167371 3.5110542e-39
1.6779815 1.2080263 -0.58737481 5.8093995e-39
1.7067231 1.2075832 -0.57850182 5.5320937e-39
1.8844851 1.2060602 -0.58562493 3.0428131e-39
1.9357007 1.2214515 -0.59470201 5.8093995e-39
2.0700712 1.2499146 -0.55812949 1.0696492e-38
2.1030862 1.2927964 -0.52360415 1.0603934e-38
2.0964754 1.3084153 -0.58696645 1.152553e-38
2.1217248 1.3526814 -0.54895377 1.1341137e-38
2.1588778 1.4495872 -0.54689324 1.124858e-38
2.2091212 1.4943674 -0.50161248 7.098332e-39
2.1823583 1.5375104 -0.5623011 1.1894307e-38
2.2194903 1.5642576 -0.52242762 9.4039416e-39
2.1989522 1.6013882 -0.59797299 1.2078701e-38
2.2484038 1.6483487 -0.54815686 1.0510289e-38
2.2844748 1.7330463 -0.57116461 1.1524801e-38
2.3185534 1.7627484 -0.5342676 8.4812665e-39
2.1804855 1.8928849 -0.53087324 8.2957906e-39
2.223011 1.8971243 -0.52552104 7.8351754e-39
2.350265 1.849435 -0.54586989 8.2053998e-39
2.1758561 1.9294156 -0.55168599 6.8188613e-39
2.2574964 1.9175072 -0.55235928 6.6377126e-39
2.3496952 1.9245313 -0.55844307 5.808675e-39
2.8870952 -2.0120652 -0.41389349 1.0418807e-38
2.9463689 -2.0391004 -0.41218734 1.1433322e-38
2.7753446 -1.9189152 -0.41122386 7.6533093e-39
2.8512599 -1.965661 -0.41541836 7.3774426e-39
2.9305656 -1.9757308 -0.40186691 8.9469376e-39
2.5848129 -1.807466 -0.40271696 1.438286e-38
2.6511781 -1.8354962 -0.40564182 9.0355221e-39
2.730463 -1.8742976 -0.4070909 9.0366067e-39
2.8795967 -1.8017292 -0.40294749 1.3462703e-38
2.065021 -1.7178298 -0.44484404 1.4097144e-38
2.1526468 -1.7454113 -0.44506845 1.4280815e-38
2.2412376 -1.7500865 -0.46848395 1.4465202e-38
2.397306 -1.7005588 -0.41846368 1.5303712e-38
2.4338241 -1.7183293 -0.41200238 1.5396279e-38
2.5611916 -1.7296453 -0.4035311 1.3277587e-38
2.6398935 -1.7319468 -0.40538585 1.4567208e-38
2.7280762 -1.7489442 -0.41058961 1.2907706e-38
2.87205 -1.7928638 -0.40189147 1.3646736e-38
1.7987827 -1.6003684 -0.46709511 1.3914947e-38
1.8519248 -1.6136687 -0.43083069 1.4099312e-38
1.9487247 -1.6489881 -0.45160383 1.4282254e-38
2.0172281 -1.6898973 -0.45891169 1.4005667e-38
2.1840262 -1.6811185 -0.40758175 1.3820563e-38
2.2250886 -1.6464317 -0.44730839 1.3913843e-38
2.3517952 -1.6327587 -0.41587245 1.4936387e-38
2.4505467 -1.6473169 -0.41677749 1.5121504e-38
2.5421734 -1.6719925 -0.41498461 1.5305527e-38
2.6117232 -1.6962887 -0.41067743 1.5857964e-38
1.7857749 -1.5729383 -0.48760802 1.3914916e-38
1.8299953 -1.5858552 -0.47007075 1.4282976e-38
2.1825292 -1.5293461 -0.46728665 1.244494e-38
2.2214193 -1.5719895 -0.44391841 1.2812246e-38
2.3420506 -1.572445 -0.42274553 1.3461986e-38
2.4114027 -1.590968 -0.42309204 1.4845642e-38
2.078871 -1.4193158 -0.46384794 1.2354198e-38
2.1373863 -1.4607291 -0.44080302 1.2262001e-38
2.2204492 -1.4860831 -0.41664273 1.217089e-38
1.9647046 -1.329397 -0.46384779 1.1801387e-38
2.0416651 -1.375471 -0.44883448 1.2170169e-38
2.1044226 -1.397161 -0.41211662 1.1986857e-38
1.8630842 -1.2542653 -0.45493779 1.1892503e-38
1.9171011 -1.290748 -0.45588297 1.2077974e-38
2.7930574 -1.28151 -0.40426973 1.5581054e-38
2.8587928 -1.2417392 -0.42542905 1.2352398e-38
2.9314046 -1.2231075 -0.47219723 1.2443514e-38
3.0038612 -1.2048879 -0.49689546 1.1429e-38
2.8845892 -1.1938257 -0.41342589 1.1889977e-38
2.9414113 -1.1532116 -0.4458732 7.5564193e-39
3.0037165 -1.1990536 -0.49831608 1.0691434e-38
1.17404 -1.0242416 -0.42695117 6.4529724e-39
1.2363619 -1.0180559 -0.4226729 6.8203158e-39
1.3144716 -1.0195374 -0.43129027 6.9121499e-39
2.8951871 -1.0480927 -0.42822507 6.8181284e-39
2.9184237 -1.0431569 -0.45623255 8.2921711e-39
1.0578823 -0.91817349 -0.4632082 1.4209297e-38
1.1364379 -0.95971799 -0.44270441 1.1064918e-38
1.2253771 -0.99231976 -0.44222325 6.6373679e-39
2.9372108 -0.95068282 -0.44898185 1.0317946e-38
1.0574543 -0.85069299 -0.46720302 1.1815822e-38
1.1428283 -0.83784831 -0.43511719 1.1814738e-38
1.2097881 -0.85245019 -0.40259248 1.3380982e-38
2.8974121 -0.80393261 -0.40596423 9.2112407e-39
2.9275301 -0.85145611 -0.45082423 1.0225391e-38
1.166913 -0.78750718 -0.4624469 7.2942644e-39
1.2418133 -0.75811577 -0.44816905 5.1579064e-39
1.351674 -0.73316818 -0.48052365 1.3196594e-38
2.8786647 -0.73798293 -0.44381469 1.0040997e-38
2.9087439 -0.78031057 -0.46858132 1.0501975e-38
1.2590456 -0.6911152 -0.41315132 5.1528631e-39
1.310743 -0.6860407 -0.40514833 4.876635e-39
2.8492422 -0.64885598 -0.45035458 9.9484414e-39
2.7962751 -0.50484031 -0.47695926 9.2112407e-39
2.8304546 -0.5537411 -0.44872102 9.4874646e-39
2.6894259 -0.40288183 -0.47279721 7.0036281e-39
2.7641335 -0.45369455 -0.4498806 8.0145108e-39
2.8021722 -0.49603993 -0.40654895 7.9212249e-39
2.5645795 -0.33570629 -0.45068938 4.0578016e-39
2.6391411 -0.38667682 -0.44395009 5.9913202e-39
2.5462029 -0.2486963 -0.44992775 4.0570771e-39
2.5358493 -0.14884222 -0.44948769 1.1588559e-38
0.93352669 -0.081966504 -0.45237538 1.4384329e-38
2.4907174 -0.042725574 -0.4904848 1.326969e-38
2.5453222 -0.050434563 -0.44974169 7.2758695e-39
2.5732255 0.042372327 -0.44414619 6.6333756e-39
2.6149306 0.079566032 -0.4798677 6.4500633e-39
2.1896515 0.19836703 -0.49751592 1.4292102e-38
2.2573445 0.19662279 -0.48510429 9.2202636e-39
2.3507619 0.18936035 -0.48525459 7.0943481e-39
2.4506669 0.18667683 -0.48505306 1.4462382e-38
2.5714369 0.16006017 -0.43536127 6.9099597e-39
2.6289501 0.14044861 -0.47499874 6.9114002e-39
2.1587059 0.25602162 -0.45613992 9.1240925e-39
2.2342772 0.23449408 -0.42635632 1.4187245e-38
2.3548384 0.24910454 -0.42570734 9.489617e-39
2.4487326 0.24258193 -0.42346328 6.6333728e-39
2.5318809 0.21140432 -0.43617797 5.7117808e-39
2.1434269 0.34952882 -0.44982013 8.8464238e-39
2.2781672 0.31222609 -0.40192646 6.8184829e-39
2.346657 0.31074622 -0.40414491 6.8188486e-39
2.1416676 0.44970018 -0.45079261 7.6496897e-39
2.1326311 0.55026352 -0.44903302 6.4540374e-39
2.0968397 0.63706821 -0.4753134 1.1341133e-38
2.1223378 0.64057302 -0.43739325 8.1103161e-39
2.1818049 0.73037601 -0.42617041 6.9985442e-39
2.230931 0.7618072 -0.45988774 3.9618729e-39
2.0801671 0.88266027 -0.45120144 4.2464444e-39
2.1359355 0.8506301 -0.44825733 2.5847539e-39
2.2324381 0.83152044 -0.46113363 2.3967234e-39
2.0483155 0.95103258 -0.45149767 2.9557084e-39
2.0237455 1.0479186 -0.44792905 3.2290163e-39
2.0449388 1.1468122 -0.45374727 4.0591483e-39
2.0823805 1.2296427 -0.48071802 6.1778261e-39
2.137785 1.2600452 -0.44714087 4.7012498e-39
2.1695647 1.3295236 -0.46842691 5.6221229e-39
2.2215171 1.3670132 -0.44279206 5.3444458e-39
2.1880071 1.4231235 -0.49830815 6.9139422e-39
2.2575235 1.4554504 -0.45408344 5.7128668e-39
2.2621949 1.5478334 -0.45336491 6.0812864e-39
2.2737014 1.643697 -0.45199186 6.1731205e-39
2.3003387 1.6967943 -0.47620636 4.9749403e-39
2.2977047 1.7050844 -0.42341954 6.2645945e-39
2.3278818 1.7570674 -0.4516097 5.9883705e-39
2.1807971 1.8780997 -0.4417434 7.4599007e-39
2.2458816 1.8671275 -0.44890022 5.7107102e-39
2.3331692 1.8450643 -0.4554902 6.4489899e-39
2.1706009 1.9273572 -0.44959834 6.4453914e-39
2.2379432 1.9025863 -0.49847716 7.5585927e-39
2.3275797 1.9015605 -0.49762511 6.177096e-39
2.9450262 -2.1136398 -0.31001827 1.6044181e-38
2.7461295 -2.0112286 -0.30504447 1.3094645e-38
2.8591344 -2.0367262 -0.34291694 1.6596992e-38
2.9627035 -2.0495229 -0.34510151 1.2080495e-38
2.5750239 -1.9211271 -0.31426674 1.2817338e-38
2.6566737 -1.9561878 -0.31696728 1.355562e-38
2.7458961 -1.9630153 -0.34477949 1.7610419e-38
2.8520408 -1.9466714 -0.3866711 1.4567962e-38
2.9517338 -1.9538177 -0.34746271 1.0418445e-38
2.3931084 -1.80633 -0.30380023 1.5120788e-38
2.4649172 -1.8288949 -0.31021398 1.456833e-38
2.5546303 -1.8535727 -0.32670364 1.6042372e-38
2.6469536 -1.8600081 -0.365242 1.6872497e-38
2.7502148 -1.8329461 -0.38954577 1.4567592e-38
2.872474 -1.8320186 -0.3625147 1.4105163e-38
2.921411 -1.8538918 -0.32742959 1.0603191e-38
2.0701821 -1.7079666 -0.3929778 1.3820561e-38
2.1197512 -1.7099457 -0.39673141 1.4004595e-38
2.36326 -1.7283326 -0.32352516 1.4563986e-38
2.45665 -1.7510861 -0.36343077 1.4564352e-38
2.5485585 -1.754312 -0.3872658 1.2630419e-38
2.6470683 -1.7598481 -0.3926864 1.3922223e-38
2.7487347 -1.7643272 -0.38479269 1.3275762e-38
2.8588734 -1.7765993 -0.37080309 1.3277227e-38
2.9338906 -1.7590733 -0.32897472 1.2080488e-38
1.799046 -1.6006026 -0.36075145 8.2939773e-39
1.8477871 -1.6074243 -0.35614103 1.4467371e-38
1.9535059 -1.6256837 -0.33711329 1.1700807e-38
2.0506773 -1.6328423 -0.34311986 1.1422791e-38
2.1504428 -1.6273605 -0.35465661 1.1237685e-38
2.2331729 -1.625267 -0.34978214 1.0593061e-38
2.3516569 -1.6550651 -0.37439454 1.3641673e-38
2.4331715 -1.6750699 -0.3938773 1.4476138e-38
2.885318 -1.6193211 -0.32345566 1.0606074e-38
2.9172618 -1.6731472 -0.32281661 7.7472902e-39
1.7898494 -1.5882671 -0.32812539 9.1226506e-39
1.8454206 -1.595759 -0.31663778 1.4375899e-38
2.216234 -1.5968561 -0.39078188 1.234727e-38
2.8650258 -1.5559783 -0.32615408 1.1525132e-38
2.6957254 -1.430655 -0.33249283 9.9581328e-39
2.7703969 -1.4321442 -0.32693496 1.2724767e-38
2.8182039 -1.4679915 -0.31246069 1.4015506e-38
2.6900597 -1.3273958 -0.34116867 9.2195616e-39
2.7514381 -1.3401284 -0.330006 1.2907746e-38
2.7718399 -1.2801952 -0.34737894 1.8163252e-38
2.8404064 -1.2469009 -0.35511196 1.253751e-38
2.927726 -1.227345 -0.3379775 9.3985284e-39
2.8874214 -1.1472943 -0.34143272 9.6747524e-39
2.9253056 -1.1525964 -0.35235226 7.5538984e-39
1.2209003 -1.0237013 -0.399818 7.0965398e-39
2.8819265 -1.0422083 -0.3467463 6.447548e-39
2.9065292 -1.0523045 -0.3732703 7.2773045e-39
2.8939757 -0.98358572 -0.31952354 8.6569893e-39
2.9147356 -0.94474542 -0.35380778 9.0261277e-39
1.1911311 -0.850003 -0.3982068 1.3563204e-38
1.2299984 -0.82830012 -0.37371051 1.0330945e-38
1.308272 -0.87330455 -0.3636224 1.3273632e-38
2.8930898 -0.81367975 -0.34357381 8.5655069e-39
2.913722 -0.86348128 -0.35077617 9.1179618e-39
1.1983358 -0.72447866 -0.32203194 6.0748082e-39
1.2113516 -0.75086188 -0.35788703 5.982614e-39
2.849576 -0.74886608 -0.34946135 8.289283e-39
1.2405695 -0.67059588 -0.34226352 6.9006074e-39
1.3051144 -0.67606437 -0.38869953 6.3492357e-39
2.7957911 -0.63449734 -0.31991616 7.9194215e-39
2.8100524 -0.65426052 -0.36160317 8.0123388e-39
2.7953098 -0.53983593 -0.3210564 7.3669707e-39
2.8096087 -0.55582446 -0.36155114 7.5517235e-39
2.7538936 -0.44861686 -0.34839526 6.998554e-39
2.8021464 -0.49361104 -0.39130208 7.2754968e-39
2.5803742 -0.32450098 -0.38462946 6.4498195e-39
2.6499629 -0.34994116 -0.34330943 7.1811558e-39
2.7047272 -0.39559531 -0.35884196 6.9989155e-39
2.5793667 -0.24405195 -0.35773677 8.7409607e-39
2.6063857 -0.28100482 -0.32243973 8.5565162e-39
2.5632441 -0.15040638 -0.35102236 7.3648254e-39
2.5428822 -0.050647635 -0.35090333 6.6333756e-39
2.4915676 0.059607796 -0.30289412 5.7110606e-39
2.5483136 0.048474453 -0.35431844 7.0021567e-39
2.4885514 0.16360325 -0.31100041 6.7255684e-39
2.5356464 0.14849325 -0.35822108 6.9099611e-39
2.1983306 0.29905599 -0.39958864 1.5844597e-38
2.2140994 0.29321098 -0.3992607 1.3265658e-38
2.3974342 0.29646862 -0.36705831 6.6344532e-39
2.4458542 0.25395897 -0.34751847 6.6337315e-39
2.5098577 0.20893534 -0.37391156 6.9099597e-39
2.1806188 0.36895037 -0.38203314 1.0871826e-38
2.2292454 0.36348695 -0.34539604 2.9491685e-39
2.3614728 0.3281363 -0.35146528 6.6351763e-39
2.4059172 0.30718985 -0.31381515 6.0816381e-39
2.1786029 0.44441816 -0.36082637 8.7517017e-39
2.2079248 0.46685159 -0.32500538 1.8439084e-39
2.170496 0.54725134 -0.37667039 1.3819191e-38
2.2419949 0.53885496 -0.33706373 3.1335598e-39
2.3443022 0.58292949 -0.3375569 5.6213915e-39
2.4125943 0.59427482 -0.30936027 7.1876284e-39
2.163034 0.64631331 -0.37907359 1.5569461e-38
2.2404089 0.65688616 -0.36172318 1.2169819e-38
2.3623016 0.63291621 -0.36309588 5.4366359e-39
2.4529676 0.656331 -0.33415499 7.6471604e-39
2.174463 0.74886727 -0.3878895 1.4463468e-38
2.2664204 0.76596242 -0.36471337 6.727023e-39
2.3428497 0.77679813 -0.34291545 5.4366401e-39
2.4543912 0.74583185 -0.34005007 6.5415373e-39
2.5060024 0.7296077 -0.30903026 7.9230242e-39
2.0725899 0.87639302 -0.34927937 4.6177633e-39
2.1323788 0.83535975 -0.35341519 5.8133988e-39
2.2485871 0.82023281 -0.34181032 3.5037913e-39
2.3046069 0.8055777 -0.31404719 5.6213943e-39
2.0502706 0.94923162 -0.35090724 3.2348358e-39
2.0498745 1.0491322 -0.3513377 3.6961671e-39
2.0675008 1.1372805 -0.35190725 3.4155991e-39
2.1066959 1.1915004 -0.33766049 4.7945343e-39
2.1480496 1.2508537 -0.34732342 5.4373659e-39
2.1862943 1.3355663 -0.3346065 5.9894481e-39
2.2144327 1.3683839 -0.36578324 5.989088e-39
2.1938937 1.4386828 -0.30918893 6.542259e-39
2.2302887 1.4546263 -0.3581425 6.3578691e-39
2.2343683 1.5495579 -0.35259059 6.6337357e-39
2.2678473 1.6487923 -0.35227814 6.4486256e-39
2.2966442 1.7344276 -0.32844198 6.4486256e-39
2.3174694 1.7598866 -0.35064724 6.4486256e-39
2.1742969 1.8592453 -0.34801182 7.5528124e-39
2.2531943 1.8339126 -0.34719127 7.2773045e-39
2.3125246 1.8208902 -0.36364397 6.8166864e-39
2.1627278 1.924129 -0.35096279 7.5531697e-39
3.0658083 -2.412744 -0.21991095 1.4016234e-38
2.8754439 -2.3140502 -0.22055775 1.6136379e-38
2.9491704 -2.3402843 -0.23566902 1.5676117e-38
3.0601976 -2.3474665 -0.2366015 1.3740362e-38
2.7600021 -2.2318032 -0.23187047 1.6044185e-38
2.8453519 -2.2611206 -0.24893351 1.4938195e-38
2.9483051 -2.2525759 -0.27017137 1.493927e-38
3.0476952 -2.2552137 -0.23816557 1.5216212e-38
2.5770772 -2.1140785 -0.21908489 1.5399176e-38
2.6543884 -2.1456494 -0.23975317 1.5491736e-38
2.7474477 -2.1500821 -0.27211905 1.2542207e-38
2.8496997 -2.148103 -0.27445331 1.0513169e-38
2.9736762 -2.135591 -0.26439151 1.5306974e-38
3.0119512 -2.1454778 -0.22091611 1.6229292e-38
2.4690542 -2.0271029 -0.22183013 1.5307347e-38
2.5452106 -2.0579734 -0.2396201 1.4478311e-38
2.6599743 -2.044868 -0.27942571 1.2359267e-38
2.7533596 -2.0533912 -0.28580695 1.1344025e-38
2.8291206 -2.0777664 -0.28266892 1.2172331e-38
2.981194 -2.0517056 -0.2728076 1.1989014e-38
3.0154541 -2.0549152 -0.22333454 1.23578e-38
2.2916629 -1.9066335 -0.20662118 1.7150538e-38
2.3571191 -1.9333955 -0.22182782 1.4386484e-38
2.4496329 -1.9445976 -0.25356305 1.3648916e-38
2.551337 -1.9504373 -0.28356993 1.3741824e-38
2.6398039 -1.9766496 -0.29273814 1.3373037e-38
2.7314053 -1.9986318 -0.29946035 1.1618793e-38
2.9697571 -1.9493693 -0.2603527 1.0422051e-38
3.0225332 -1.9674174 -0.21317102 1.0332378e-38
2.182286 -1.8142891 -0.21303444 1.3374503e-38
2.2538083 -1.8450494 -0.22617386 1.2820607e-38
2.3519216 -1.8450898 -0.26711658 1.3832581e-38
2.4370854 -1.8697895 -0.28405863 1.4570497e-38
2.5973482 -1.8967934 -0.29975128 1.337087e-38
2.9407783 -1.8438435 -0.25201386 1.3463425e-38
2.0771224 -1.7181598 -0.22564831 1.300354e-38
2.1440206 -1.7431625 -0.23724003 1.3924773e-38
2.2560537 -1.7468244 -0.2799705 1.6504437e-38
2.3257859 -1.7772948 -0.28946945 1.632041e-38
2.9477882 -1.7538149 -0.24908018 1.3278672e-38
1.8682895 -1.6026157 -0.26550734 1.3363585e-38
1.9493102 -1.6147536 -0.26710168 1.1334241e-38
2.0506496 -1.6385657 -0.26873094 1.3456198e-38
2.1372485 -1.6554546 -0.27952293 1.5577782e-38
2.2290683 -1.6774687 -0.29646757 1.8714955e-38
2.8912227 -1.6108804 -0.29577446 5.6271522e-39
2.9299288 -1.6512914 -0.24728172 9.4060898e-39
1.7850813 -1.5796001 -0.24601932 9.2177413e-39
1.8460907 -1.5890882 -0.2474951 1.6592608e-38
1.9350499 -1.5904702 -0.25656173 1.4746207e-38
2.8837292 -1.5422686 -0.26464185 8.1153552e-39
2.9125414 -1.5760285 -0.23156279 9.0373087e-39
2.7951493 -1.4179248 -0.29420045 1.2171978e-38
2.842731 -1.4531503 -0.24920689 1.2633314e-38
2.7853782 -1.3309797 -0.25341499 1.5766528e-38
2.8083315 -1.3731203 -0.24917415 1.0049681e-38
2.7748039 -1.2834468 -0.2464719 1.9730937e-38
2.8650782 -1.2789757 -0.25161022 1.3644941e-38
2.9498639 -1.2443433 -0.24769467 1.0048589e-38
2.8874896 -1.1160687 -0.25778699 6.3593236e-39
2.9236121 -1.1649839 -0.24975593 5.6232047e-39
2.7615895 -1.0228816 -0.23880471 2.0092112e-38
2.8355711 -1.0597432 -0.2674804 7.6471716e-39
2.7651327 -0.96919215 -0.23261403 1.7975221e-38
2.8399823 -0.93242216 -0.25520328 1.5944756e-38
2.904727 -0.90949792 -0.29415983 1.0499449e-38
1.2310979 -0.80240119 -0.26010543 2.6733033e-39
2.8817809 -0.86555523 -0.23849091 1.4933129e-38
2.9068677 -0.84613055 -0.25415906 1.631281e-38
1.1983885 -0.71738702 -0.29495761 5.0635416e-39
1.2176895 -0.74726486 -0.24764377 1.8424679e-39
2.7994208 -0.70152301 -0.26047331 8.8406491e-39
2.8514917 -0.74867761 -0.25108913 1.5667084e-38
2.9039955 -0.79605031 -0.22524354 1.7239102e-38
1.2362245 -0.65724272 -0.2511692 3.8671648e-39
2.6931655 -0.61332482 -0.21690595 2.2122562e-38
2.7638583 -0.64704543 -0.25712401 1.2529552e-38
2.8040445 -0.6930908 -0.26593372 1.3728814e-38
2.6831579 -0.55411977 -0.21515839 2.1844535e-38
2.7708054 -0.54846299 -0.26698387 8.1030924e-39
2.6706288 -0.44549358 -0.21645619 1.7048931e-38
2.7369988 -0.4517214 -0.2661618 7.1815005e-39
2.6444144 -0.348268 -0.24982853 7.5513648e-39
2.5913203 -0.23046117 -0.25125641 5.7088998e-39
2.6073849 -0.27844846 -0.24896874 6.2609917e-39
2.5556946 -0.15003833 -0.25010771 5.6170657e-39
2.4916646 -0.020484885 -0.24263106 5.70962e-39
2.5132432 -0.067741401 -0.25444731 5.70962e-39
2.4634931 0.050149627 -0.2484861 5.6177845e-39
2.3876202 0.17624196 -0.22846083 5.1578868e-39
2.4261179 0.13802791 -0.25615537 5.4344737e-39
2.3578372 0.25231886 -0.23579068 4.7898259e-39
2.424633 0.24486773 -0.28701144 5.8961707e-39
2.1972439 0.39743713 -0.28342485 1.7884133e-38
2.2415121 0.37237918 -0.24907959 2.7658605e-39
2.3456237 0.32809561 -0.25153688 4.8834663e-39
2.4046638 0.30655521 -0.29436734 6.0812794e-39
2.1970804 0.41224301 -0.27976188 1.1430808e-38
2.2291338 0.4529649 -0.24621031 4.0569622e-39
2.2598462 0.51816005 -0.25252217 1.7506268e-39
2.3512845 0.55891907 -0.24452206 6.9114044e-39
2.4273403 0.58893204 -0.24682096 8.3847268e-39
2.4805326 0.62637776 -0.25756934 8.844619e-39
2.5153544 0.67288291 -0.24758972 9.1204814e-39
2.2520564 0.79176122 -0.26328918 1.2908099e-38
2.362839 0.79457664 -0.24861622 6.0823682e-39
2.4428501 0.77420813 -0.25356951 5.9887292e-39
2.5417168 0.73898315 -0.24808338 8.2914452e-39
2.0545409 0.86005074 -0.25224325 1.0145873e-38
2.1503668 0.83458889 -0.24783516 8.6685584e-39
2.2402914 0.82023406 -0.23740578 6.1756513e-39
2.3283269 0.80339402 -0.23140243 5.6217502e-39
2.0424919 0.95032024 -0.25033033 8.210481e-39
2.1393552 0.93984175 -0.20597456 5.8983357e-39
2.0644763 1.049889 -0.25137538 6.8282836e-39
