# .PCD v0.7 - Point Cloud Data file format
VERSION 0.7
FIELDS x y z rgb
SIZE 4 4 4 4
TYPE F F F F
COUNT 1 1 1 1
WIDTH 1026
HEIGHT 1
VIEWPOINT 0 0 0 1 0 0 0
POINTS 1026
DATA ascii
2.525893 -0.74804807 -0.65111291 3.6877972e-40
2.5647376 -0.65200758 -0.64761245 2.7658409e-40
2.6079955 -0.61063546 -0.6863696 6.453638e-40
2.5906363 -0.53231633 -0.65645468 4.7923581e-39
2.6079354 -0.56980014 -0.64186561 2.3963591e-39
2.5720012 -0.44940168 -0.64988655 4.5150481e-39
2.4614911 -0.33029303 -0.65106738 1.0145065e-39
2.5322709 -0.38178825 -0.64842039 2.7651374e-39
2.3813164 -0.21848686 -0.64923203 1.1992607e-39
2.4248524 -0.26986903 -0.65065438 7.3864124e-40
2.3727617 -0.14988938 -0.65252829 2.7665892e-39
2.3674512 -0.051647801 -0.65059382 4.702326e-39
2.3794703 0.041017592 -0.65494621 1.3644208e-38
2.4179649 0.08242593 -0.62721777 1.253822e-38
2.3971362 0.10362082 -0.6962468 1.604093e-38
2.4214463 0.15070131 -0.65128624 1.2998841e-38
2.3711631 0.25924522 -0.65364563 7.8366103e-39
2.4059229 0.21669884 -0.64964265 1.2446026e-38
2.3844669 0.30628905 -0.6832 1.6605961e-39
2.4307101 0.35158718 -0.64950824 8.3083687e-40
2.4818878 0.44845113 -0.67487323 1.7520743e-39
2.5349495 0.45856735 -0.63646924 1.1989005e-39
1.9742129 0.58652896 -0.67629874 1.1800281e-38
2.051306 0.57881087 -0.64865917 7.8351474e-39
2.1399264 0.57273513 -0.64517123 8.2968164e-39
2.2459033 0.57708138 -0.65440989 6.5443847e-39
2.3404634 0.5833019 -0.66512203 4.1487641e-39
2.4706066 0.56166226 -0.67171329 1.0141477e-39
2.5332279 0.54403347 -0.62992179 1.290736e-39
1.9696254 0.64830321 -0.67389268 1.189248e-38
2.0168281 0.65050149 -0.6247924 1.2261262e-38
2.2953181 0.60033911 -0.6026547 1.9360956e-39
2.3645144 0.60601807 -0.62283963 3.5034199e-39
2.4545517 0.60954624 -0.63027483 1.0141449e-39
2.5064206 0.60510671 -0.60799259 6.4536661e-40
1.979481 0.75505918 -0.66685236 1.1984315e-38
2.0118496 0.74045414 -0.62153047 1.2260905e-38
1.7497427 0.82058775 -0.64591873 1.1707725e-38
1.8502709 0.83956778 -0.64736676 1.1615531e-38
1.9627116 0.84095383 -0.6412248 1.1523338e-38
2.0064623 0.87664157 -0.60491616 1.170845e-38
1.8850375 0.90805954 -0.60641932 6.5465834e-39
1.9290737 0.91120559 -0.60688943 6.1774477e-39
2.5459781 -2.234143 -0.55924869 1.6781796e-38
2.4972746 -2.152844 -0.50282246 1.6873992e-38
2.5368345 -2.1494601 -0.54899001 1.6781792e-38
2.5329795 -2.048326 -0.54954898 1.6781068e-38
2.5566151 -1.9623249 -0.54847115 1.0512116e-38
2.5563569 -1.8539402 -0.55033094 1.26319e-38
2.5651362 -1.7637138 -0.55104291 1.244641e-38
2.6054943 -1.7428226 -0.5501771 5.8076016e-39
2.5548892 -1.6500475 -0.55215639 3.3183224e-39
2.485523 -1.5324807 -0.54087263 4.1484516e-39
2.5119915 -1.5735605 -0.56431699 5.1629609e-39
2.4762437 -1.4564924 -0.55415577 5.2551607e-39
2.5231411 -1.4178215 -0.54892004 3.1342955e-39
2.496244 -1.3980124 -0.59778965 1.3745086e-38
2.5465825 -1.3547181 -0.55047417 2.6736747e-39
2.5222321 -1.2493527 -0.55070573 2.5814762e-39
2.4933851 -1.1301473 -0.52918798 8.2975787e-40
2.5059292 -1.1615285 -0.56412482 8.2975787e-40
2.4937062 -1.0694948 -0.52463984 7.3756224e-40
2.5059853 -1.0391197 -0.56197661 5.5317098e-40
2.5269585 -0.95205736 -0.54758751 5.5317098e-40
2.4988873 -0.8062067 -0.53147131 5.5317098e-40
2.5161593 -0.8501004 -0.54764539 5.5317098e-40
2.4876709 -0.75257474 -0.5467087 5.5317098e-40
2.5107243 -0.73087406 -0.54452169 3.6877972e-40
2.5498006 -0.64952511 -0.54870492 9.2194229e-41
2.6007431 -0.60295928 -0.50462639 3.6877972e-40
2.5946584 -0.53832865 -0.56103075 1.750631e-39
2.6087732 -0.55668503 -0.54451668 3.6841958e-40
2.5836806 -0.4491092 -0.55320364 3.1328395e-39
2.603276 -0.47961032 -0.50803101 4.2406318e-39
2.48172 -0.32366073 -0.56236792 1.0141477e-39
2.5284872 -0.36424658 -0.5387041 1.7509897e-39
2.3962018 -0.21353436 -0.59043646 6.4680434e-40
2.4462049 -0.25068992 -0.54771614 1.014868e-39
2.5033371 -0.2917906 -0.5039475 1.290736e-39
2.3904226 -0.14439391 -0.58144546 1.5676957e-39
2.4139099 -0.15429802 -0.53531718 1.1063448e-39
2.3811574 -0.051190529 -0.55936772 3.9651239e-39
2.4152036 -0.041810237 -0.51218569 2.8587792e-39
2.3886237 0.026637988 -0.56012416 1.3092119e-38
2.4228408 0.054715805 -0.54032016 1.0787231e-38
2.3905957 0.16527088 -0.53396994 1.4106629e-38
2.4282296 0.14583381 -0.54801154 9.2195462e-39
2.5096273 0.1513382 -0.50327981 1.198176e-39
2.3804674 0.2392088 -0.56356221 1.180138e-38
2.4455569 0.25899473 -0.52781814 2.397801e-39
2.5066111 0.25822529 -0.50283188 5.5244791e-40
2.4541788 0.34154046 -0.5623461 1.3843694e-39
2.5376029 0.36182582 -0.52134484 6.4536661e-40
2.4963794 0.40154743 -0.59349835 1.8546746e-40
2.5703297 0.44055259 -0.55768675 5.5352971e-40
2.6185672 0.47848243 -0.53012335 1.5673215e-39
2.063266 0.59397233 -0.58392006 9.2177217e-39
2.1362581 0.58821619 -0.57592642 8.0202477e-39
2.2242985 0.59554297 -0.58372438 2.9502391e-39
2.5717437 0.56800181 -0.56694138 1.1985404e-39
2.6309748 0.54265243 -0.53261077 1.7517128e-39
2.0370555 0.64695001 -0.54907686 1.1984678e-38
2.1479158 0.60736626 -0.53224182 6.0852521e-39
2.2511401 0.61304486 -0.53963643 3.5041472e-39
2.3499744 0.62627053 -0.5473634 2.3988842e-39
2.4610345 0.63249564 -0.54819208 8.311998e-40
2.5216191 0.61248142 -0.54380119 8.30118e-40
1.9984647 0.79226667 -0.58222711 1.2169788e-38
2.0254812 0.74964619 -0.54818898 1.2261263e-38
1.7537981 0.85347021 -0.58618963 1.1524057e-38
1.8247523 0.87549555 -0.58569849 1.1432941e-38
1.992499 0.82714421 -0.58648604 1.1616613e-38
2.0230644 0.85162067 -0.54310775 1.207723e-38
1.8678087 0.9136011 -0.54672009 1.1340027e-38
1.9522313 0.92771083 -0.55341333 1.1248551e-38
2.0344493 0.93168473 -0.54298866 1.2353816e-38
2.3118086 1.1983105 -0.50025928 1.2078673e-38
2.3780298 1.2448801 -0.50857079 1.207831e-38
2.4240611 1.2759999 -0.50903696 1.1986476e-38
2.476166 1.3530719 -0.52001083 1.2170507e-38
2.5427313 1.3763424 -0.51032478 8.6706898e-39
2.4907038 1.4255906 -0.52947986 1.1986476e-38
2.5496037 1.4481794 -0.51929963 8.8543664e-39
2.61361 1.4635302 -0.50595456 1.6707247e-39
2.0686767 1.5808785 -0.54087532 8.3919351e-39
2.1349146 1.5869786 -0.53209507 1.1342909e-38
2.2533448 1.5737121 -0.52234638 1.6137432e-38
2.3270702 1.562754 -0.52685839 1.6875358e-38
2.4370298 1.5860801 -0.53115648 1.4386445e-38
2.5547311 1.5458337 -0.53674668 1.1987922e-38
2.6551816 1.5454878 -0.52457958 4.7095595e-39
2.7176335 1.5837325 -0.51875973 1.3981077e-39
2.0849688 1.6490204 -0.54145676 9.406443e-39
2.1396234 1.6472641 -0.52992231 1.2449253e-38
2.2535164 1.6518281 -0.524086 1.5769008e-38
2.3477888 1.6502919 -0.52230561 1.6045239e-38
2.4562731 1.641941 -0.53544158 1.3740721e-38
2.5435538 1.6460984 -0.54010975 1.2171236e-38
2.6502347 1.6517648 -0.54689687 1.0698272e-38
2.7621765 1.6461273 -0.53258699 2.1345867e-39
2.8173349 1.683709 -0.51588804 1.0325804e-39
2.0894685 1.7644246 -0.5274902 1.3094977e-38
2.1299987 1.7548376 -0.53578156 1.2726553e-38
2.2397015 1.7421817 -0.52248144 1.6229624e-38
2.3484797 1.7462604 -0.52222949 1.3370849e-38
2.4520047 1.7496467 -0.53310043 1.226379e-38
2.538054 1.7479634 -0.54125273 1.2262718e-38
2.6457033 1.7471073 -0.55351663 1.134256e-38
2.7582977 1.7511255 -0.56498986 7.7523446e-39
2.8479197 1.7481365 -0.53762114 1.1240474e-39
2.9262609 1.7713612 -0.50866514 3.8103421e-39
2.0826199 1.8299137 -0.53761894 1.2541443e-38
2.1372449 1.8565981 -0.52441937 1.2448527e-38
2.2421663 1.8632616 -0.5188666 1.2816954e-38
2.3560395 1.848848 -0.53192163 1.2171948e-38
2.4419017 1.8532137 -0.53340048 1.2079395e-38
2.5552177 1.8522795 -0.54374796 1.189501e-38
2.6507971 1.8596944 -0.55596071 1.0142956e-38
2.7620094 1.8442345 -0.56970352 6.0006389e-39
2.8700907 1.8459554 -0.56710088 1.0307657e-39
2.9357574 1.8595083 -0.5358727 2.0521343e-39
3.0063388 1.8886316 -0.51158023 4.8316911e-39
2.1677141 1.915087 -0.50662714 1.189427e-38
2.2620928 1.9246753 -0.51123089 1.1618772e-38
2.3435061 1.9397537 -0.52546918 1.1895362e-38
2.4541228 1.9535183 -0.54178244 1.2079755e-38
2.5516498 1.9507231 -0.54659712 1.1158886e-38
2.6537476 1.9574779 -0.55488843 4.8907068e-39
2.7622108 1.9638112 -0.5680759 1.7604022e-39
2.8467035 1.9527798 -0.55471224 1.2158913e-39
2.9525654 1.938846 -0.53446704 1.7762733e-39
3.0227115 1.9481494 -0.51399618 4.0872737e-39
3.1107578 1.9894155 -0.50484949 5.7190003e-39
2.3426902 2.0218859 -0.51370126 8.3073163e-39
2.4530511 2.0486991 -0.53602678 9.1345518e-39
2.5419524 2.041079 -0.5494706 1.0332372e-38
2.6606603 2.0459917 -0.55897123 3.8801534e-39
2.7504706 2.0416207 -0.5425027 1.3995595e-39
2.8375406 2.037797 -0.53236216 1.3077324e-39
2.9420362 2.0353234 -0.53647405 5.7341694e-40
3.0503135 2.0511763 -0.53224957 3.2607613e-39
3.1350756 2.0581627 -0.50946116 3.3219209e-39
2.4735041 2.1563184 -0.52338517 1.855095e-39
2.5452044 2.1659095 -0.52818441 1.9472948e-39
2.6482022 2.1739576 -0.55479866 2.1335007e-39
2.7351189 2.1523404 -0.54574597 1.3077226e-39
2.849668 2.1532621 -0.52844614 2.4173127e-39
2.9444807 2.1707649 -0.52996355 3.72318e-39
3.0539904 2.1491864 -0.53945863 3.4509189e-39
3.1494443 2.1557705 -0.51946443 2.958909e-39
2.4788032 2.2219777 -0.51699251 2.2202719e-39
2.5576441 2.2511582 -0.50742364 2.7806638e-39
2.6532321 2.2370977 -0.5226891 1.4942774e-39
2.7400646 2.2378685 -0.5310263 1.0336636e-39
2.8545122 2.2552392 -0.52297968 4.2749006e-39
2.9449508 2.243423 -0.51882511 4.3552006e-39
3.0567045 2.2566628 -0.52022517 3.3323844e-39
3.1419032 2.2418218 -0.51886463 2.9560223e-39
2.5773525 2.3133438 -0.50421578 1.1254949e-39
2.692004 2.304157 -0.50097418 2.7165852e-39
2.7617269 2.3228276 -0.51218188 3.3590708e-39
2.8410902 2.3244996 -0.51166546 3.808868e-39
2.9514604 2.3234522 -0.5080502 3.7832592e-39
3.0244284 2.3097305 -0.50513387 3.5059437e-39
2.4888399 -2.2080147 -0.48267642 1.6690681e-38
2.5016117 -2.2040174 -0.49802351 1.6782877e-38
2.4740324 -2.147378 -0.4482249 1.6874352e-38
2.5016222 -2.1480875 -0.49802569 1.6874349e-38
2.4811895 -2.0523286 -0.44057021 1.6873628e-38
2.5048485 -2.038197 -0.48833668 1.6781429e-38
2.4905827 -1.9783069 -0.42314073 1.6781068e-38
2.5475585 -1.960197 -0.45522934 1.2448226e-38
2.6011517 -1.9761881 -0.44373086 1.1157483e-38
2.5484543 -1.8497632 -0.45001206 1.0696155e-38
2.5766289 -1.7626225 -0.44583371 1.170777e-38
2.6071327 -1.7523146 -0.4673391 6.2682252e-39
2.49246 -1.6059889 -0.45472902 7.4657048e-39
2.5504532 -1.6556509 -0.44216087 5.1615203e-39
2.4626579 -1.5425025 -0.45192856 7.0047267e-39
2.5155349 -1.5673282 -0.40789184 4.6087081e-39
2.4592223 -1.4505435 -0.44611412 7.097281e-39
2.5143452 -1.4152647 -0.45011085 3.2264911e-39
2.4942174 -1.3946006 -0.45302567 1.3829364e-38
2.5435691 -1.354739 -0.44857112 3.7793048e-39
2.5328496 -1.2483494 -0.44908765 1.8439098e-39
2.4900107 -1.1303651 -0.48259735 8.2975787e-40
2.5338147 -1.1547105 -0.4396517 7.3756224e-40
2.4913251 -1.0676032 -0.4852652 6.4536661e-40
2.5374093 -1.0459987 -0.44494125 5.5317098e-40
2.558984 -0.95096439 -0.45009375 2.7658409e-40
2.6013565 -0.90333062 -0.40154159 3.6806085e-40
2.5727234 -0.8549127 -0.46476644 5.5317098e-40
2.6124268 -0.83631629 -0.41920042 2.7622535e-40
2.4934993 -0.75898689 -0.49846178 1.290736e-39
2.5633104 -0.74338436 -0.46064559 3.6877972e-40
2.6132586 -0.77510244 -0.4191125 3.6842098e-40
2.5812054 -0.65969175 -0.4541921 2.7658409e-40
2.6062849 -0.61277413 -0.43824863 5.5245071e-40
2.6222594 -0.54990458 -0.44903719 5.5281084e-40
2.5918655 -0.41576302 -0.48981333 2.8573401e-39
2.6216536 -0.45279935 -0.44799063 1.1978201e-39
2.5678382 -0.34146583 -0.45886973 1.1059846e-39
2.6131759 -0.36945605 -0.42107567 1.1045427e-39
2.4795239 -0.22382024 -0.49008587 2.027578e-39
2.5502477 -0.25188085 -0.44915059 7.372021e-40
2.632194 -0.24768674 -0.40396032 4.9716948e-39
2.4548998 -0.14948779 -0.48572224 2.5811077e-39
2.5654802 -0.15324214 -0.45458183 1.013789e-39
2.6330531 -0.14903563 -0.42025039 2.8537289e-39
2.7279441 -0.13902482 -0.41059658 9.8544325e-39
2.4510837 -0.055914868 -0.48726159 2.8580561e-39
2.5501282 -0.048804093 -0.45177308 1.1056245e-39
2.6491997 -0.056353144 -0.42320186 3.3132623e-39
2.726403 -0.049680967 -0.41283697 1.0221772e-38
2.4862759 0.04485501 -0.49336326 4.4250189e-39
2.5427668 0.049412601 -0.4555735 1.2896542e-39
2.6513662 0.056406021 -0.42578593 6.4439326e-39
2.7132227 0.049236268 -0.41318023 1.0590906e-38
2.546155 0.14826432 -0.46643856 1.1974586e-39
2.6472101 0.15272722 -0.43481287 4.6943891e-39
2.7337859 0.15292498 -0.41819787 1.0590902e-38
2.4952548 0.24373057 -0.4965055 4.6061241e-40
2.5519192 0.24496208 -0.47632736 2.0272122e-39
2.6375301 0.25618082 -0.44855189 2.6693376e-39
2.736238 0.25072423 -0.42101398 1.1789076e-38
2.8032205 0.23777902 -0.40034822 1.2713555e-38
2.5772016 0.34845692 -0.48402399 1.6584339e-39
2.6373057 0.34471017 -0.45898834 1.6566305e-39
2.7544692 0.35076591 -0.43034729 1.1974549e-38
2.8112745 0.38479269 -0.40405613 1.5644376e-39
0.87227988 0.43372682 -0.41494179 1.1614447e-38
2.5940335 0.41584679 -0.48962563 3.6842098e-40
2.637116 0.45119333 -0.47507417 1.0119883e-39
2.7769046 0.43824679 -0.45005307 1.0958967e-38
2.8157215 0.46512169 -0.42469749 7.8300971e-39
2.5936713 0.59867114 -0.47593942 3.5930918e-39
2.6624169 0.56627232 -0.47470453 3.8682354e-39
2.7627728 0.55747443 -0.44948912 1.0960762e-38
2.8125761 0.53649074 -0.42104411 5.6202942e-39
2.0691593 0.65237242 -0.45311245 1.2261625e-38
2.1435487 0.62462008 -0.44471538 6.4547563e-39
2.2552459 0.63222933 -0.45001689 2.0304633e-39
2.3554585 0.6396808 -0.44476259 1.3850981e-39
2.4498155 0.63615006 -0.45306405 2.8566128e-39
2.5462704 0.61850548 -0.45441303 4.8823803e-39
2.6386263 0.61256588 -0.4195317 9.8583799e-39
2.7561831 0.61984265 -0.41092369 3.7785579e-39
2.8013642 0.60471618 -0.40614483 9.2195069e-40
2.0676804 0.74999291 -0.468573 1.2353459e-38
2.1143723 0.75787592 -0.42112339 1.2262342e-38
2.0587547 0.8540895 -0.45445731 1.2077951e-38
2.1062887 0.82494801 -0.41475722 1.2354179e-38
1.8871136 0.9357599 -0.48978952 1.1432943e-38
1.9411155 0.95784992 -0.48442101 1.2077594e-38
2.0611477 0.95177281 -0.46077123 1.1893561e-38
2.1406984 0.96068013 -0.4180758 8.2100788e-39
2.2053349 0.99464917 -0.41066876 1.0286021e-39
2.0654347 1.0105333 -0.46623796 1.2170506e-38
2.1484463 1.0414337 -0.45183095 1.1894642e-38
2.2477574 1.0498691 -0.42667285 4.1585494e-39
2.3122048 1.0896996 -0.41918257 1.2140794e-39
2.1954439 1.1031545 -0.4866918 1.8815422e-38
2.2665713 1.1357291 -0.4813745 1.1710968e-38
2.3477216 1.1479011 -0.45138946 5.6322291e-39
2.4299939 1.1808541 -0.43193108 2.3225709e-39
2.3724966 1.2168863 -0.48876721 1.170989e-38
2.460757 1.2387788 -0.4697392 5.3545576e-39
2.5338008 1.2665507 -0.44847322 2.7813883e-39
2.6193535 1.2871263 -0.41879249 4.2612085e-39
2.4865928 1.3086326 -0.49717444 9.6844704e-39
2.5607011 1.3415449 -0.4768649 2.1280861e-39
2.6508005 1.3456715 -0.44636336 2.9701236e-39
2.7370031 1.373877 -0.43315187 4.5374339e-39
2.5980492 1.4035276 -0.49223229 1.5770815e-39
2.6390595 1.4484354 -0.48277324 2.5894258e-39
2.7610185 1.4411849 -0.46126303 3.9028909e-39
2.837538 1.4560134 -0.43747804 5.2706605e-39
2.9126339 1.4908285 -0.42382491 2.4918043e-39
2.67609 1.5231887 -0.48875767 2.2267782e-39
2.7477012 1.5496129 -0.48424184 1.495718e-39
2.8521278 1.553546 -0.47551793 4.0984519e-39
2.9566026 1.5422556 -0.44986787 2.7777645e-39
3.028975 1.5772848 -0.43400085 2.6823305e-39
2.779712 1.6161542 -0.4947702 9.4110925e-40
2.8648806 1.642855 -0.48716822 2.9881485e-39
2.9367204 1.6598291 -0.47904256 3.3500716e-39
3.0559597 1.6494601 -0.45193088 2.1266274e-39
3.1294847 1.6694584 -0.41487858 5.7341736e-39
2.8938618 1.7056258 -0.49678829 4.1870518e-39
2.9498672 1.7487224 -0.489775 4.0872765e-39
3.0641775 1.7544383 -0.46309206 2.0315493e-39
3.1543024 1.7474571 -0.42076677 5.4593761e-39
3.2118175 1.7827492 -0.40517607 6.0888632e-39
2.9819956 1.8246888 -0.49391672 4.0850961e-39
3.0526261 1.8439537 -0.46796724 2.3088494e-39
3.1615059 1.8453646 -0.42913282 4.2655259e-39
3.2206306 1.8493267 -0.40715528 5.9041118e-39
2.1725996 1.931438 -0.49468917 1.1894269e-38
2.2221189 1.930793 -0.49731094 1.1526577e-38
3.0798099 1.9243258 -0.48304293 4.4289748e-39
3.1387434 1.9558764 -0.46628153 3.6950293e-39
3.2385108 1.9554597 -0.42516539 5.2663277e-39
3.1592939 2.0537896 -0.48070925 2.8602225e-39
3.2713947 2.0441444 -0.44089022 5.8216608e-39
3.3117125 2.0780346 -0.4259938 5.0729092e-39
3.1751339 2.1573017 -0.47716823 2.2220768e-39
3.2521377 2.158709 -0.43796641 5.7319791e-39
3.3206081 2.1338067 -0.43239561 5.9963075e-39
2.5642679 2.2857928 -0.43808043 2.1370923e-39
2.632067 2.2894726 -0.45211259 2.4169274e-39
2.7132847 2.2934325 -0.4090296 4.4585786e-39
3.0753539 2.2774682 -0.44922557 3.4213333e-39
3.1522844 2.2462888 -0.45301825 3.2398245e-39
3.2145677 2.2243099 -0.42565954 4.6162499e-39
2.5758467 2.3089619 -0.45880672 2.7043295e-39
2.665185 2.3069358 -0.4647288 2.5008217e-39
2.7555718 2.330353 -0.45564935 2.2217181e-39
2.8472741 2.3483734 -0.46208075 2.4028639e-39
2.9446633 2.3579967 -0.47592148 3.0449781e-39
3.0551057 2.3438914 -0.45938993 3.2318931e-39
3.1160579 2.3762157 -0.44633019 6.1926098e-39
2.9639816 2.4201906 -0.43155092 3.8877288e-39
3.0574527 2.444555 -0.4339222 4.5305605e-39
3.1360936 2.4516551 -0.45148626 4.9980238e-39
2.4408247 -2.1359787 -0.35522813 1.6966549e-38
2.4397659 -2.0502715 -0.3519657 1.6966186e-38
2.3969014 -1.9699898 -0.30247855 1.705838e-38
2.4512374 -1.9510345 -0.34710059 1.6781788e-38
2.5697622 -1.9458209 -0.35103992 1.1066006e-38
2.6010294 -1.9661733 -0.3740887 1.1066364e-38
2.4508584 -1.8908002 -0.31417146 1.6597392e-38
2.5298903 -1.8399441 -0.34963116 8.576374e-39
2.5572824 -1.7510351 -0.35165113 1.253789e-38
2.5572922 -1.6513609 -0.34714809 4.1459153e-39
2.4948931 -1.5096182 -0.3777824 2.6736733e-39
2.5263326 -1.5529972 -0.34186143 2.8551807e-39
2.6059682 -1.5760072 -0.30074605 1.1972426e-38
2.4915318 -1.4603045 -0.3573654 1.7509967e-39
2.5283132 -1.4302019 -0.33557096 3.4072684e-39
2.6100104 -1.4230435 -0.30505502 1.0959351e-38
2.5496209 -1.355682 -0.35668325 1.2892955e-39
2.6251607 -1.354422 -0.31116962 1.0037037e-38
2.5562243 -1.2470646 -0.35155916 3.6838525e-39
2.605799 -1.2911435 -0.306676 1.0405457e-38
2.549001 -1.1485794 -0.35265508 2.7615347e-39
2.5694745 -1.0537542 -0.35044101 4.0504658e-39
2.6149092 -1.0098854 -0.33412793 6.5361367e-39
2.5821786 -0.96742529 -0.38590565 1.8402972e-40
2.6550529 -0.95977956 -0.35000622 5.1553686e-39
2.7358589 -0.92402625 -0.33212838 6.6297714e-39
2.8097491 -0.9040792 -0.30723116 1.1063448e-39
2.6412284 -0.85366446 -0.3875027 6.4392607e-40
2.764189 -0.85218638 -0.3573131 7.4573671e-39
2.8232746 -0.85495251 -0.31542063 2.3041621e-39
2.5999944 -0.70406038 -0.39758044 5.5245211e-40
2.6518822 -0.73928326 -0.3803286 2.9459231e-39
2.738585 -0.75911421 -0.34536096 7.1832998e-39
2.8239105 -0.75205719 -0.31181031 9.2231223e-40
2.5971162 -0.67330521 -0.39555433 5.5245211e-40
2.6394093 -0.6453048 -0.35848776 6.354272e-39
2.7494555 -0.65518945 -0.31834933 3.319407e-39
2.8512154 -0.64705515 -0.31307095 1.0145149e-39
2.9416835 -0.61358863 -0.30855992 3.1346528e-39
3.0183394 -0.60148513 -0.30789995 3.8722165e-39
2.659411 -0.55552977 -0.36405256 7.9208718e-39
2.7385185 -0.5384472 -0.33169809 1.1153907e-38
2.8551483 -0.54831314 -0.33023915 7.3753645e-39
2.9487929 -0.56951058 -0.32874575 3.4112747e-39
3.0539522 -0.56510782 -0.32240045 3.1346598e-39
3.1413081 -0.5349192 -0.3165338 5.5317518e-40
2.5968931 -0.40350536 -0.32592383 1.6044914e-38
2.6392004 -0.44595823 -0.36093113 8.7513513e-39
2.7386303 -0.45774558 -0.32333851 1.3369843e-38
2.8552485 -0.44965005 -0.31949827 5.2548412e-39
2.942826 -0.44943184 -0.32199675 3.9630052e-39
3.059473 -0.4431574 -0.32730174 3.1339634e-39
3.1456363 -0.45098439 -0.31458905 1.1985474e-39
2.5975354 -0.38772273 -0.32546932 1.5216956e-38
2.6302104 -0.3530657 -0.35706756 1.0135003e-38
2.7427359 -0.34146833 -0.33294544 6.3614929e-39
2.850131 -0.3445861 -0.34065983 2.5814832e-39
2.9529767 -0.34423304 -0.34830818 1.2911088e-39
3.0513644 -0.34121737 -0.3300508 9.219605e-40
3.1176589 -0.38980526 -0.31308249 9.2160037e-40
2.6760292 -0.25607672 -0.37729377 9.8547926e-39
2.7333722 -0.24038842 -0.35868984 8.3847128e-39
2.8559515 -0.24680312 -0.35890105 4.4239287e-39
2.9406435 -0.23386742 -0.33917564 1.014868e-39
3.0240438 -0.27639422 -0.32522359 1.2918164e-39
2.7409768 -0.15475108 -0.38240269 1.013246e-38
2.8781266 -0.14128576 -0.34429729 2.6733005e-39
2.907182 -0.15658873 -0.34076154 8.3047673e-40
2.7419987 -0.037217576 -0.36017072 1.1243133e-38
2.8537369 -0.07010331 -0.34253979 3.5952554e-39
2.9045961 -0.094163865 -0.32478344 6.4572674e-40
2.736124 0.048575703 -0.34958819 1.5209352e-38
2.7665048 0.13216041 -0.37929872 1.2071809e-38
2.860256 0.14681953 -0.35245955 6.3510336e-39
2.9251986 0.18294016 -0.33245966 8.3663796e-39
2.77983 0.26390395 -0.39214358 1.4101182e-38
2.8447945 0.24932796 -0.38071841 1.0876163e-38
2.9290335 0.24823196 -0.3359113 7.1721566e-39
2.7782917 0.32591847 -0.38933054 8.2946948e-39
2.8572867 0.36205551 -0.35897839 6.535436e-39
2.9260099 0.3357673 -0.32142419 5.6116847e-39
3.0185084 0.39266783 -0.30316806 1.0141491e-39
0.74978238 0.45545641 -0.33296466 2.5825538e-39
0.83661634 0.42796293 -0.35255721 9.1266149e-39
2.8427644 0.45008147 -0.35105225 2.0279423e-39
2.9520791 0.42864293 -0.30709022 8.3047813e-40
3.019702 0.41666499 -0.30361459 1.1063448e-39
0.72017294 0.5331412 -0.32590452 2.1215757e-39
2.8351302 0.54631031 -0.35214585 2.0275808e-39
2.9085178 0.5667482 -0.31098974 6.5415583e-39
2.0964835 0.64150816 -0.37659574 1.2354541e-38
2.1347833 0.65281546 -0.3444587 1.4014438e-38
2.2458615 0.63160247 -0.3543824 3.5059577e-39
2.3607707 0.64148074 -0.36609444 2.4914484e-39
2.4442337 0.64581615 -0.35809079 4.0580454e-39
2.5500274 0.65388244 -0.36295855 4.0587657e-39
2.6420331 0.65318209 -0.36621881 4.1502397e-39
2.7602522 0.64434171 -0.37779397 2.5821895e-39
2.8489976 0.64011472 -0.36509141 8.9447571e-39
2.9339235 0.64928812 -0.33965647 1.2078684e-38
3.0515184 0.6670891 -0.32108906 7.557857e-39
3.1034656 0.69530118 -0.3071163 7.5574843e-39
2.143301 0.74614555 -0.36717451 1.309283e-38
2.2395153 0.76338124 -0.33603904 1.8257243e-38
2.3107226 0.79549414 -0.31527278 8.2075663e-39
2.4972913 0.70000076 -0.32423151 5.8097652e-39
2.5691838 0.71969193 -0.3214978 1.1895017e-38
2.6593678 0.7329638 -0.32755142 9.5894049e-39
2.7578619 0.74608195 -0.33371896 1.0142932e-38
2.8551977 0.74220246 -0.33736232 1.032732e-38
2.9377089 0.73388618 -0.33581761 9.589758e-39
3.0622513 0.74674571 -0.33385769 7.6522163e-39
3.1239338 0.75043899 -0.31641671 6.5447799e-39
2.0780435 0.87711221 -0.37642965 9.4997344e-39
2.1401577 0.85135764 -0.3608337 1.5581759e-38
2.2521491 0.85222822 -0.34128809 1.9916766e-38
2.3543665 0.84931988 -0.33140367 1.0699366e-38
2.4258635 0.87782425 -0.32310021 1.0694689e-38
2.6746998 0.86133558 -0.30096075 7.1015732e-39
2.7719057 0.87638247 -0.30416468 6.4551262e-39
2.8569899 0.8135708 -0.31116682 7.9334737e-39
2.9507966 0.82516176 -0.32054186 6.9164435e-39
3.0625024 0.83828574 -0.32382622 6.8235332e-39
3.1315806 0.82716715 -0.3157236 6.8220899e-39
2.0951338 0.90327048 -0.37835217 2.4071995e-39
2.1621604 0.94368333 -0.36344934 7.7548866e-39
2.2353802 0.95807296 -0.34351084 1.2094939e-38
2.3482132 0.95887238 -0.33050597 1.2838992e-38
2.46403 0.92466766 -0.32396123 1.5675411e-38
2.539324 0.95558482 -0.31823626 2.0744356e-38
2.6466002 0.96774977 -0.30751532 1.1154926e-38
2.7423477 0.93613809 -0.3021161 6.8217353e-39
2.830404 0.95538098 -0.30320078 4.243136e-39
2.9167156 0.99260962 -0.3029379 9.6830186e-39
2.2466176 1.0261929 -0.36544964 5.278582e-39
2.3443866 1.0569265 -0.36269045 6.0266134e-39
2.427563 1.0497662 -0.3389571 8.248679e-39
2.5527749 1.0538771 -0.33001763 8.9822839e-39
2.6563461 1.0374885 -0.32410485 1.1354469e-38
2.7584863 1.0534153 -0.32020828 6.6387874e-39
2.8512499 1.0667402 -0.31258526 7.2816261e-39
2.932533 1.0489733 -0.30371827 9.4964624e-39
2.3717642 1.1164837 -0.3820684 5.0992102e-39
2.4568696 1.1458832 -0.36945975 5.7424356e-39
2.5328851 1.1685978 -0.35796246 3.9795699e-39
2.6292691 1.1011368 -0.33378035 8.616744e-39
2.7527461 1.1320224 -0.33991498 6.855665e-39
2.8560135 1.1489935 -0.32979473 5.4456588e-39
2.9422748 1.1559607 -0.30983287 8.7589029e-39
2.5642881 1.2210802 -0.38128126 2.9574712e-39
2.6361694 1.2670681 -0.37628692 2.2163035e-39
2.7100518 1.2874465 -0.36358398 1.2990387e-39
2.8910892 1.2094998 -0.34101942 5.8169721e-39
2.9564612 1.2454197 -0.33022588 6.9168148e-39
3.0205474 1.275113 -0.31083426 8.75854e-39
2.6790841 1.3125103 -0.38484654 3.0449837e-39
2.7486215 1.3531871 -0.38342243 2.493612e-39
2.8350272 1.3744746 -0.37858742 3.79878e-39
2.9498239 1.3651047 -0.3710067 6.6550439e-39
3.0543559 1.3517588 -0.33995441 7.285226e-39
3.112154 1.382889 -0.31212544 8.297922e-39
2.7972488 1.4015094 -0.39949536 4.2438842e-39
2.8549149 1.4268482 -0.39022288 1.9465703e-39
2.9541955 1.4465047 -0.38198146 6.1998251e-39
3.0639772 1.4458156 -0.3667402 6.4569213e-39
3.1370451 1.4544392 -0.3304753 7.8376683e-39
2.9849923 1.5127988 -0.3949827 5.8422277e-39
3.0536888 1.5397712 -0.38542297 5.2681283e-39
3.164041 1.547809 -0.35020739 7.6529239e-39
3.2151756 1.568494 -0.31509012 8.2982821e-39
3.0953419 1.6044499 -0.39741287 1.9498213e-39
3.1656718 1.6386765 -0.38334906 5.9948655e-39
3.2395225 1.6535174 -0.33826691 8.5752263e-39
3.1946771 1.7104104 -0.39507854 6.6405979e-39
3.2681739 1.75019 -0.35982841 8.1138951e-39
3.3033061 1.7654729 -0.31445128 8.9436459e-39
3.2823825 1.8504822 -0.35233423 8.3911938e-39
3.3019543 1.8125734 -0.30782536 8.8521692e-39
3.2764719 1.949078 -0.34956691 9.4971714e-39
3.194608 2.0983398 -0.30692351 1.0695347e-38
3.257283 2.0587664 -0.3455731 1.0234734e-38
3.1619477 2.1465249 -0.3430506 1.0971214e-38
3.2308645 2.1189084 -0.38080901 9.9574279e-39
2.5606682 2.2448823 -0.3603785 8.3134456e-39
2.6571746 2.2844753 -0.34845397 5.9991773e-39
2.723244 2.2940032 -0.34130594 5.2576438e-39
3.0827796 2.281292 -0.35414526 4.7033952e-39
3.1491833 2.2490566 -0.3504793 9.9567062e-39
2.5820429 2.3203874 -0.38223299 1.1817594e-38
2.6145971 2.3412297 -0.33842722 1.6323979e-38
2.772804 2.3095212 -0.3548896 5.4413148e-39
2.8490231 2.3413751 -0.34667692 5.7175346e-39
2.9530733 2.3810759 -0.33775663 6.0863143e-39
3.0501485 2.3519688 -0.3482458 5.8104547e-39
3.181881 2.3053102 -0.33880579 1.0509887e-38
2.9807174 2.4078212 -0.38009137 6.2707069e-39
3.0267434 2.4117987 -0.38568005 6.0866758e-39
2.3870847 -2.1125491 -0.23726164 1.7151659e-38
2.4088962 -2.1247683 -0.28098476 1.7059105e-38
2.3812082 -2.0479403 -0.23553079 1.715094e-38
2.4062722 -2.0588212 -0.28584704 1.7058745e-38
2.3762546 -1.9481726 -0.24383464 1.7150577e-38
2.4149492 -1.9143827 -0.25885469 1.6965822e-38
2.5741496 -1.937869 -0.25414839 1.1527343e-38
2.6030564 -1.9490119 -0.23553886 1.1434426e-38
2.434691 -1.8823028 -0.24674612 1.6781425e-38
2.545608 -1.8403345 -0.25059217 8.4838182e-39
2.5584197 -1.7528239 -0.24873097 1.5028252e-38
2.5637467 -1.6651733 -0.25974524 1.1241358e-38
2.6449232 -1.6397265 -0.24355522 1.1613747e-38
2.7458155 -1.6322118 -0.22575931 1.0971272e-38
2.8374083 -1.6219318 -0.21499066 1.0418465e-38
2.9262004 -1.6045371 -0.20849219 9.4043214e-39
2.5813062 -1.5463476 -0.29740366 1.1050833e-38
2.6571724 -1.5575906 -0.27965105 1.1239553e-38
2.7499464 -1.5502144 -0.25966954 9.586898e-39
2.8490379 -1.5580487 -0.24271591 9.12701e-39
2.9525192 -1.5584159 -0.22361679 8.4823595e-39
3.0085583 -1.5696886 -0.20842095 8.9436964e-39
2.587575 -1.4863273 -0.29883811 1.1143385e-38
2.6532822 -1.4499356 -0.29068625 1.0960077e-38
2.7541869 -1.452682 -0.27132314 7.5575123e-39
2.8507531 -1.4507586 -0.24158958 7.0990579e-39
2.9188242 -1.4806821 -0.21942048 7.2834492e-39
2.6668861 -1.3468369 -0.28062725 8.3829346e-39
2.7373772 -1.3463346 -0.23685478 4.6097745e-39
2.8094878 -1.3926741 -0.21802568 6.2696532e-39
2.5868771 -1.2346082 -0.29054689 9.7618935e-39
2.6531034 -1.2552772 -0.26618978 3.5941806e-39
2.734973 -1.2516493 -0.2236556 3.2275715e-39
2.556638 -1.1456754 -0.28684169 8.6569907e-39
2.6496475 -1.1447541 -0.26005602 3.2239632e-39
2.722347 -1.1525224 -0.22169346 5.6185314e-39
2.5727968 -1.0628715 -0.28898832 7.643922e-39
2.6567085 -1.0433583 -0.25877297 3.9626044e-39
2.7118483 -1.0466813 -0.21415569 6.6359133e-39
2.6867657 -0.98747426 -0.2696242 3.5945422e-39
2.736779 -0.94813341 -0.24961455 4.6090556e-39
2.8314464 -0.91615409 -0.2398238 1.3832932e-39
2.8557618 -0.85195494 -0.25174984 9.219549e-40
2.8456731 -0.74828219 -0.2503106 6.4536661e-40
2.865721 -0.6684894 -0.25196114 7.3756504e-40
2.9445236 -0.62264711 -0.24914694 8.2976067e-40
3.0211208 -0.60358703 -0.25347814 1.751717e-39
3.0671723 -0.59030235 -0.24815594 2.9502602e-39
3.1412563 -0.54345036 -0.25040972 9.219563e-40
3.1624315 -0.45122024 -0.24990533 1.3829344e-39
3.0696955 -0.32448798 -0.25639394 7.3756504e-40
3.1354949 -0.37443933 -0.24628641 2.2126951e-39
2.8945038 -0.20672002 -0.21127793 1.1063448e-39
2.9422343 -0.22992957 -0.24769123 1.5680418e-39
3.0278852 -0.27903375 -0.25670215 1.1067049e-39
2.8766582 -0.14367095 -0.24724121 1.8442685e-39
2.9028358 -0.18927658 -0.26775584 7.382825e-40
2.7718863 -0.024359707 -0.24731722 1.8348702e-38
2.8269622 -0.069499522 -0.2525562 6.7313502e-39
2.9006894 -0.092497624 -0.29374906 1.3840106e-39
2.7504499 0.049045 -0.24949118 2.0100774e-38
2.7833006 0.10462906 -0.2419454 1.4292453e-38
2.8643646 0.130353 -0.25178659 9.1230233e-39
2.9433808 0.17446135 -0.25324968 8.3743026e-39
3.0118368 0.19523682 -0.2120892 5.5169639e-39
2.9823992 0.22488941 -0.28072089 6.8019378e-39
3.0412238 0.25657055 -0.24519114 3.6784505e-39
2.9920893 0.32779434 -0.29821429 1.6587969e-39
3.0447369 0.34853071 -0.24988338 1.3814897e-39
0.77077496 0.47382936 -0.28300911 2.4903582e-39
0.83623672 0.46151873 -0.25195655 4.9799891e-39
0.90601653 0.48901787 -0.21296315 1.6414736e-38
2.8858325 0.48269928 -0.29752812 5.0693177e-39
2.9692049 0.4852865 -0.28221786 1.8431909e-39
3.0280468 0.44832486 -0.24852309 1.1967397e-39
0.75664049 0.54592657 -0.27240837 2.1215757e-39
0.83625704 0.54623431 -0.24010827 3.3204734e-39
0.90549546 0.57150072 -0.2279603 9.6830298e-39
2.8839731 0.57158464 -0.25362644 5.8864583e-39
2.9564707 0.53866917 -0.24930896 2.208005e-39
0.78323752 0.6149503 -0.25147682 2.1215743e-39
0.82314444 0.62004137 -0.24036625 2.2137685e-39
2.1729193 0.66042632 -0.28665656 2.1023111e-38
2.229708 0.66284633 -0.28342488 2.0469935e-38
2.3008959 0.69806105 -0.27549696 2.1946495e-38
2.9544508 0.61190796 -0.24747972 7.6446408e-39
3.0534172 0.65753943 -0.25447384 7.6475135e-39
3.1118329 0.69241095 -0.24756214 7.925178e-39
2.1867921 0.71304458 -0.2931779 1.070081e-38
2.2436457 0.73508239 -0.28539214 1.982385e-38
2.3363342 0.76222152 -0.28342164 2.0930195e-38
2.461113 0.76781881 -0.28744209 8.3937456e-39
2.5558832 0.76379782 -0.28884199 1.1895375e-38
2.6369455 0.77968526 -0.28394979 1.7428538e-38
2.7595448 0.79711026 -0.24405196 1.4755585e-38
3.1558836 0.75142395 -0.25073558 8.2943206e-39
2.2399576 0.89284921 -0.29728404 2.2683365e-38
2.3676746 0.81667852 -0.29220027 2.2402444e-38
2.4478588 0.85253316 -0.29313836 1.5761823e-38
2.548382 0.86026275 -0.29485938 9.4946785e-39
2.6508613 0.83235091 -0.28792384 9.129147e-39
2.7592587 0.82046258 -0.24863388 1.4569754e-38
2.8323321 0.86662018 -0.2510334 9.0376604e-39
2.9504237 0.83341974 -0.24780774 8.6688751e-39
3.0644534 0.84899813 -0.25207612 9.0369402e-39
3.1587465 0.83074647 -0.2535347 8.5737984e-39
3.2010388 0.82670027 -0.21554798 8.6652682e-39
2.250598 0.90521634 -0.29869625 2.1855409e-38
2.5615876 0.92275053 -0.2969574 1.5008709e-38
2.6423776 0.94208479 -0.29440537 1.2600508e-38
2.7487593 0.97972274 -0.29676345 1.2974328e-38
2.8498585 0.92599547 -0.26681551 8.9447403e-39
2.9362013 0.95622575 -0.23450622 1.0051821e-38
3.0142732 0.99227989 -0.21546629 1.0696833e-38
2.7824788 1.0077233 -0.29802677 1.417538e-38
2.8523388 1.0296352 -0.29916829 1.1331726e-38
2.9713433 1.0491893 -0.29298604 8.8514573e-39
3.0548513 1.0576748 -0.25894225 8.5755963e-39
3.121393 1.0750252 -0.2178846 8.8518244e-39
2.9821646 1.1427976 -0.29360753 8.482672e-39
3.0544553 1.1509858 -0.25576118 8.2060865e-39
3.1170108 1.1375215 -0.21558079 8.5752305e-39
2.9941037 1.2150567 -0.2974073 8.2060851e-39
3.0669096 1.2478414 -0.25600082 8.1142496e-39
3.1116459 1.2541529 -0.20761806 8.2986408e-39
3.0882242 1.3146162 -0.27118394 8.0216952e-39
3.134455 1.3595419 -0.2463095 8.1138923e-39
3.1770148 1.441962 -0.25642875 8.1138937e-39
3.2087517 1.4796041 -0.2234402 8.1146125e-39
3.1967669 1.5079063 -0.29321384 7.9295038e-39
3.2342634 1.5502448 -0.24874018 8.0224169e-39
3.2751334 1.6446426 -0.2544274 8.3904777e-39
3.3064661 1.6882132 -0.21602957 8.2982807e-39
3.294174 1.710821 -0.28594247 8.6670604e-39
3.3209212 1.7551074 -0.24836606 8.7592561e-39
3.2921324 1.8727815 -0.26011926 9.40498e-39
3.3210216 1.834096 -0.23955679 9.2205901e-39
3.2805092 1.948401 -0.25171164 1.0050344e-38
3.1936774 2.0982819 -0.27401498 1.1064131e-38
3.2574668 2.0624151 -0.24986781 1.0972296e-38
3.1557643 2.141151 -0.24849246 1.1340715e-38
3.2067311 2.1010149 -0.20815897 1.1893893e-38
2.5769334 2.2441998 -0.26246238 8.6713918e-39
2.6259186 2.285305 -0.25532183 1.0330194e-38
2.7285252 2.2979569 -0.29283386 4.888497e-39
3.0914986 2.2903938 -0.26455322 4.703754e-39
3.1385779 2.2538228 -0.24805628 9.1273141e-39
2.6312888 2.3441708 -0.24736409 1.4571909e-38
2.7537711 2.3292093 -0.24382293 4.795944e-39
2.8469799 2.3376291 -0.2460807 5.3483933e-39
2.9612992 2.3505683 -0.24648213 6.0863157e-39
3.040899 2.3147871 -0.25158057 5.3491192e-39
3.1838541 2.3067377 -0.26252788 1.0325499e-38
2.6365221 2.401206 -0.20537828 1.6230713e-38
2.3611319 -2.100688 -0.19755137 1.7244218e-38
2.3391979 -2.0373645 -0.14868519 1.7336053e-38
2.3542242 -1.9425281 -0.15065612 1.7335332e-38
2.4147842 -1.9111065 -0.14094193 1.7334606e-38
2.5701571 -1.9276012 -0.14435594 1.3463093e-38
2.6039855 -1.9437006 -0.16105056 1.1434783e-38
2.4411142 -1.8849949 -0.15270348 1.7057656e-38
2.5712533 -1.8438417 -0.14913228 8.8522406e-39
2.5760257 -1.7505423 -0.15029538 1.5304842e-38
2.8947415 -1.7005352 -0.10020889 8.1132098e-39
2.5764434 -1.6884962 -0.1566475 1.2814824e-38
2.6506264 -1.6722779 -0.14898044 1.2261646e-38
2.7444322 -1.6558728 -0.15037155 1.1616281e-38
2.8528867 -1.6512872 -0.1585695 1.0786886e-38
2.9493284 -1.645488 -0.14631514 9.6809069e-39
3.0372891 -1.626618 -0.13621424 9.6809111e-39
2.9857874 -1.5175557 -0.17546405 7.836267e-39
3.0492437 -1.5641922 -0.14586391 1.0140433e-38
3.1598768 -1.5206567 -0.10960284 9.6772341e-39
3.2109909 -1.5305613 -0.10281704 8.3887051e-39
2.8716574 -1.4167501 -0.16519912 6.8217437e-39
2.9486568 -1.4552407 -0.15495192 7.8355355e-39
3.0467341 -1.446257 -0.13233876 7.5578556e-39
3.1416538 -1.4600774 -0.11231189 6.7284789e-39
3.2144322 -1.4895333 -0.10431514 8.9419055e-39
2.7773857 -1.337446 -0.18957907 3.2268442e-39
2.8455176 -1.3583752 -0.16587377 4.240992e-39
2.9484358 -1.3555412 -0.14193924 5.0700408e-39
3.0402369 -1.3732818 -0.11550887 5.3455473e-39
3.1077564 -1.3930234 -0.1045922 5.8057995e-39
2.7773557 -1.2465271 -0.17911671 2.6736873e-39
2.8371348 -1.2496569 -0.13267082 1.9364866e-39
2.9317617 -1.2367218 -0.10605557 3.1321361e-39
2.7509878 -1.1470528 -0.16618113 6.172794e-39
2.8407717 -1.1555543 -0.12231066 6.5401332e-39
2.9315677 -1.1718421 -0.10759485 4.8816894e-39
2.7463243 -1.0478759 -0.15713429 6.3600495e-39
2.8260319 -1.0555557 -0.1112628 7.6525918e-39
2.7434735 -0.97812295 -0.1680555 9.7727228e-39
2.8583927 -0.96431798 -0.15907499 4.3339107e-39
2.9262047 -0.94564432 -0.13762145 9.2159897e-40
3.0205283 -0.91099119 -0.10577026 5.8987309e-39
2.8845944 -0.84870297 -0.17175148 1.0137932e-39
2.9306486 -0.85167927 -0.13103729 1.9350334e-39
3.0248718 -0.85194945 -0.11031913 5.8980092e-39
2.8787291 -0.75658971 -0.17575133 2.4889205e-39
2.9464505 -0.74944091 -0.14695944 5.3459088e-39
3.0406716 -0.74434161 -0.12046158 5.7143368e-39
2.8848953 -0.67284167 -0.18733762 2.76515e-39
2.9516203 -0.64054185 -0.16733818 2.3041747e-39
3.0477366 -0.64657158 -0.12972385 5.1618833e-39
3.121294 -0.61502677 -0.11399014 5.9912866e-39
3.0641465 -0.58613634 -0.171831 2.0275864e-39
3.1550572 -0.54499459 -0.145649 4.6087067e-39
3.1658735 -0.45358369 -0.16543537 3.5949121e-39
3.2187824 -0.45003414 -0.12214525 6.2678693e-39
3.0645921 -0.32347298 -0.16518007 3.2264869e-39
3.1439111 -0.36200655 -0.14560725 4.4250315e-39
3.204602 -0.38517091 -0.10771685 6.1760324e-39
2.8913846 -0.20710605 -0.16121353 1.1985418e-39
2.9457479 -0.24627922 -0.14652741 1.6595199e-39
3.0263796 -0.2842465 -0.15444416 2.2126951e-39
3.1280539 -0.29020363 -0.10420851 6.0849116e-39
2.8682234 -0.15398948 -0.1609582 2.0282997e-39
2.9328732 -0.13685669 -0.11702397 6.5451638e-39
2.7903712 -0.025711834 -0.18041664 1.8716063e-38
2.8336487 -0.051224295 -0.14576089 1.3920091e-38
2.9308519 -0.085038275 -0.11951011 8.2036006e-39
2.7820776 0.04067032 -0.1898874 1.8347995e-38
2.8482509 0.048833709 -0.15265994 2.221842e-38
2.9380038 0.050822936 -0.11514685 1.2167643e-38
3.0464213 0.064724244 -0.10939004 1.1614812e-38
3.1271889 0.079255559 -0.1046837 1.0508105e-38
2.7909904 0.10427228 -0.19082765 1.5305893e-38
2.8641517 0.12558344 -0.16493532 1.5211543e-38
2.9526181 0.16013652 -0.15183192 8.564456e-39
3.0331154 0.1716799 -0.13763712 7.7343267e-39
3.1571152 0.14251392 -0.11099134 1.1244215e-38
3.2205513 0.15981311 -0.10590424 1.3088479e-38
3.0647209 0.22799742 -0.16855581 4.9641475e-39
3.1511083 0.25944382 -0.15199046 6.991008e-39
3.2224028 0.27253944 -0.12058328 1.0597063e-38
3.085474 0.35216758 -0.1952991 2.023255e-39
3.1620729 0.36182508 -0.15110923 7.7339736e-39
3.2098522 0.32204887 -0.13413392 1.0041018e-38
2.9729574 0.48179919 -0.14283508 4.6094031e-39
3.0522976 0.44795468 -0.1541484 4.9745913e-39
3.1209323 0.42680019 -0.1453286 7.2755108e-39
2.8897543 0.57783329 -0.18469051 3.5884045e-39
2.9695477 0.5513469 -0.16710804 3.6827679e-39
3.0266299 0.54334325 -0.14519134 3.2239548e-39
3.1620989 0.54621226 -0.11886524 8.9404075e-39
3.2162199 0.56886137 -0.10765966 8.6631004e-39
2.9618502 0.61659324 -0.17035563 7.1865452e-39
3.0486567 0.64451861 -0.16407792 6.266028e-39
3.1547372 0.66585279 -0.15115775 7.188699e-39
3.2496729 0.65847981 -0.11755521 8.8482105e-39
2.7788765 0.79897511 -0.18840162 1.3648888e-38
3.1896071 0.74211699 -0.18318616 8.6638206e-39
3.2180669 0.75351077 -0.13543352 9.0326017e-39
2.7815821 0.81408763 -0.18514249 1.4202789e-38
2.8537266 0.83868802 -0.15496613 8.4833992e-39
2.9441261 0.84726906 -0.13775194 1.004423e-38
3.0487769 0.83440512 -0.14685397 1.1064162e-38
3.1499338 0.83764309 -0.15529622 1.0233677e-38
3.2132149 0.82248455 -0.14692663 9.0336849e-39
2.8988707 0.90038902 -0.1881756 1.0605366e-38
2.9549465 0.92751515 -0.17121042 8.2997535e-39
3.0380645 0.95677525 -0.13527702 4.6108479e-39
3.1016009 0.99915355 -0.11184441 3.413025e-39
3.0776553 1.0115687 -0.1837794 1.0235853e-38
3.153882 1.0505896 -0.15780231 8.9447487e-39
3.219557 1.0842433 -0.13414989 9.129133e-39
3.1660039 1.1498978 -0.18475546 8.7596204e-39
3.2319636 1.1503164 -0.13501769 8.9440103e-39
3.1601384 1.2535567 -0.17268552 8.5755837e-39
3.2208972 1.2430197 -0.12592605 8.9436445e-39
3.1678469 1.3414525 -0.17255375 8.4830307e-39
3.2178385 1.3547287 -0.12488897 8.668138e-39
3.1944799 1.4089937 -0.18921599 8.3911966e-39
3.230885 1.4526802 -0.14857046 8.6681422e-39
3.2584095 1.5488847 -0.14998469 8.4833894e-39
3.2898462 1.6278127 -0.16024625 8.3911952e-39
3.3111579 1.6718812 -0.13838218 8.3911938e-39
3.3306582 1.7508717 -0.1477043 8.298638e-39
3.2736335 1.8750811 -0.14169848 9.5890111e-39
3.32464 1.8325841 -0.15321426 8.7596134e-39
3.2636182 1.9486929 -0.15329587 1.05106e-38
3.2544723 2.0588729 -0.15007223 1.1801335e-38
3.1539404 2.1408334 -0.15104724 1.1893528e-38
3.2087929 2.1019337 -0.15758789 1.2077922e-38
2.6264217 2.2851591 -0.19852158 9.1312994e-39
3.0963979 2.2949512 -0.13213144 4.9806982e-39
3.1333189 2.2557831 -0.15125057 9.403901e-39
2.6421919 2.3515069 -0.19157943 1.2265945e-38
2.7753789 2.3764553 -0.18578529 4.5189998e-39
2.847898 2.3662541 -0.16241884 5.0718092e-39
2.9569931 2.3629279 -0.14980169 5.9019244e-39
3.0463889 2.323853 -0.14716703 5.5335104e-39
3.1771383 2.3022943 -0.18790789 1.1062342e-38
2.6827457 2.4227707 -0.18362299 2.0300891e-39
2.7703419 2.4642088 -0.16118349 3.8729157e-39
2.8417749 2.4494541 -0.13053305 4.5182809e-39
2.913065 2.4117217 -0.10436115 5.1640076e-39
2.7779994 2.5155549 -0.13800131 3.8729157e-39
2.824954 2.5361013 -0.10894088 4.2416982e-39
2.8442454 2.6026993 -0.10256412 3.8729185e-39
2.3645122 -2.1024911 -0.068812147 1.7521525e-38
2.3564003 -2.0467196 -0.05099681 1.761336e-38
2.3691852 -1.952322 -0.05088922 1.7520443e-38
2.4205639 -1.9110029 -0.048147004 1.7519001e-38
2.5792856 -1.9202157 -0.060646359 9.5915979e-39
2.6047587 -1.920872 -0.017155938 4.7967035e-39
2.461185 -1.8893752 -0.051791761 1.7242409e-38
2.5848289 -1.852622 -0.059487026 1.0511395e-38
2.6071916 -1.8635093 -0.024776833 6.3629516e-39
2.5886791 -1.7516787 -0.049741581 1.5489233e-38
2.646008 -1.7085189 -0.029434077 1.25386e-38
2.7101009 -1.7066612 -0.011948702 1.1985418e-38
2.8904252 -1.700915 -0.09422332 7.8366187e-39
2.5808473 -1.6953598 -0.080202751 1.3183971e-38
2.662215 -1.689697 -0.074724957 1.2077258e-38
2.7431014 -1.6761234 -0.04704814 1.1801383e-38
2.8612013 -1.6773487 -0.043113396 8.4819825e-39
2.943975 -1.6638585 -0.055694807 7.6518785e-39
3.0412209 -1.6353794 -0.054710962 1.0049332e-38
3.1781371 -1.6047401 -0.015589183 9.5883609e-39
3.2617025 -1.6201482 -0.03354606 7.1909242e-39
3.308537 -1.6190839 -0.03096984 6.1760534e-39
3.0815744 -1.5837601 -0.055862974 1.0233723e-38
3.1335554 -1.5730436 -0.059759866 1.0325555e-38
3.2641284 -1.5487957 -0.053912152 6.6366532e-39
3.3023674 -1.5993598 -0.02618196 5.9912992e-39
3.1748083 -1.4264128 -0.051750559 6.266056e-39
3.2261019 -1.4784116 -0.044979148 6.6348399e-39
2.9975104 -1.3176593 -0.099442095 5.0685932e-39
3.0727501 -1.3300314 -0.084829338 5.9898307e-39
3.128793 -1.352129 -0.042506084 6.4504459e-39
2.8844545 -1.2263508 -0.099852785 1.1045553e-39
2.9592819 -1.2418356 -0.095470652 4.0544455e-39
3.0550537 -1.2494557 -0.049268939 6.3589761e-39
2.8872299 -1.1069916 -0.086914048 4.1477257e-39
2.9590604 -1.1411295 -0.058164399 4.9771263e-39
3.0151083 -1.1790445 -0.034043748 6.728123e-39
2.7989671 -1.0284845 -0.096893407 1.0972356e-38
2.8678808 -1.0500045 -0.08646562 5.9005189e-39
2.9103599 -1.0424284 -0.03983067 3.5030766e-39
2.8935509 -0.99568635 -0.092191428 7.4685635e-39
2.9578245 -0.97206485 -0.054588754 2.9495469e-39
3.0333676 -0.92866176 -0.04613081 6.1753262e-39
3.0424361 -0.84884024 -0.050560959 6.0824103e-39
3.0731273 -0.75312579 -0.052022275 5.806901e-39
3.1016529 -0.73937523 -0.0077356352 5.9909377e-39
3.084511 -0.67815626 -0.060369819 5.8990966e-39
3.1333942 -0.63230139 -0.046894912 5.991295e-39
3.187304 -0.56511575 -0.063718788 6.0834879e-39
3.2061634 -0.5332768 -0.032591779 6.0834893e-39
3.1973124 -0.49679852 -0.092231236 6.0834836e-39
3.2320795 -0.45240378 -0.050607406 6.1756807e-39
3.1897013 -0.32081017 -0.070632979 5.9916425e-39
3.2168038 -0.36165863 -0.043553509 6.0834836e-39
2.9458268 -0.21802771 -0.066577516 2.2123378e-39
3.0569518 -0.23397353 -0.041557454 4.4243168e-39
3.152653 -0.27242953 -0.043467827 6.0838396e-39
3.201654 -0.29886019 -0.0069070384 6.1756821e-39
2.9569259 -0.16785932 -0.073835559 4.6087025e-39
3.0386555 -0.14029969 -0.039492197 6.8206829e-39
2.887197 -0.025638813 -0.09842696 1.1614477e-38
2.9557867 -0.046980292 -0.094618142 1.1430448e-38
3.0606375 -0.070467919 -0.063683465 7.9270235e-39
3.1393068 -0.038453527 -0.038130656 8.0192177e-39
3.2113829 -0.0091042444 -0.013873394 8.2958046e-39
2.9643989 0.010295594 -0.096629985 1.0786154e-38
3.0632186 0.01777615 -0.091170385 1.1615912e-38
3.1607964 0.043101687 -0.073547408 1.0508472e-38
3.2255659 0.058127802 -0.031644545 1.0692506e-38
3.1877439 0.10714395 -0.091949813 1.2259812e-38
3.2620788 0.13935858 -0.057104416 1.3181399e-38
3.3129945 0.18066481 -0.035082158 1.4010429e-38
3.2719958 0.26361459 -0.058466848 1.3917866e-38
3.3128498 0.22166698 -0.038047031 1.4194454e-38
3.1650565 0.37160006 -0.053073477 1.3366137e-38
3.2218788 0.32078671 -0.049717102 1.4102622e-38
3.1411138 0.44800481 -0.05195054 1.189101e-38
3.186985 0.51325339 -0.063298799 9.9545496e-39
3.2370493 0.56039953 -0.048262879 8.7556533e-39
3.273349 0.65022892 -0.053821735 8.7560177e-39
3.3012364 0.66221863 -0.009265529 8.5719893e-39
3.248884 0.74818325 -0.051536635 9.0333206e-39
2.8942981 0.84364152 -0.094970986 1.4645297e-38
2.9568875 0.85433406 -0.081838734 1.4637796e-38
3.0534959 0.860982 -0.062318999 1.2617083e-38
3.1334801 0.85474277 -0.037435897 1.0602825e-38
3.225641 0.82512653 -0.049907718 9.1258806e-39
3.0735559 0.93299627 -0.079768881 9.3074118e-39
3.1425731 0.95791757 -0.04181502 1.0234416e-38
3.1785135 1.0210942 -0.05012399 1.0051105e-38
3.2314134 1.0716141 -0.048017424 1.0419875e-38
3.2491462 1.1506306 -0.050949961 8.8514559e-39
3.1958976 1.2877197 -0.00459034 6.2699909e-39
3.2309299 1.2496029 -0.051206626 8.482672e-39
3.1917169 1.3493547 -0.0068387119 5.9937641e-39
3.2303395 1.3488045 -0.055554099 8.3911966e-39
3.19245 1.4258984 -0.0064294925 5.9015699e-39
3.2465873 1.4518741 -0.053790443 8.2990038e-39
3.2589524 1.5489672 -0.050355416 7.8380256e-39
3.2651379 1.6400983 -0.033877801 6.7313207e-39
3.3131816 1.6648993 -0.069532961 8.2986366e-39
3.18771 1.7800854 -0.010059493 5.8093715e-39
3.2524099 1.7492546 -0.026377497 6.2703482e-39
3.3184595 1.7477139 -0.071696438 8.298638e-39
3.1756005 1.850661 -0.020260226 6.4550954e-39
3.2515969 1.8563462 -0.063601971 8.5745089e-39
3.3158791 1.828122 -0.078773066 8.7585372e-39
3.1907029 1.929978 -0.014970939 8.2986352e-39
3.2404108 1.9565467 -0.055420056 9.8659553e-39
3.0972526 2.0932941 -0.0085124159 1.2261227e-38
3.1615214 2.0673354 -0.030238984 1.2262309e-38
3.2379363 2.0444143 -0.068045236 1.1893889e-38
3.0874774 2.1590872 -0.016419509 1.2537455e-38
3.1329947 2.1450181 -0.065167956 1.2354144e-38
3.0951202 2.2693317 -0.041431274 6.362904e-39
3.1202602 2.2477527 -0.065888137 9.680125e-39
2.988899 2.3925171 -0.095776424 6.1785099e-39
3.0594842 2.3517749 -0.051760715 5.4413148e-39
2.8959906 2.4898877 -0.096768759 4.7030309e-39
2.9521945 2.4462426 -0.05240104 4.1498585e-39
3.019978 2.4163449 -0.045901973 4.6108339e-39
2.8768432 2.5600159 -0.087888762 3.5963302e-39
2.9333923 2.5501492 -0.043376409 3.1353521e-39
2.8819373 2.6193717 -0.054589499 2.6740208e-39
2.9117029 2.6201098 -0.021706335 2.5821811e-39
2.3441563 -2.0394857 0.048986971 1.8074341e-38
2.3764455 -1.9601433 0.05064439 1.7889587e-38
2.4267972 -1.9110857 0.046215251 1.7704471e-38
2.5702348 -1.9142206 0.045198571 1.641408e-38
2.626087 -1.9272637 0.048107393 9.3146495e-39
2.4685054 -1.8841237 0.051861294 1.7519356e-38
2.5647073 -1.841804 0.05034646 1.2725182e-38
2.6117039 -1.8712034 0.043009803 3.8758388e-39
2.5843816 -1.7694089 0.051871333 1.5951297e-38
2.6335714 -1.7265956 0.047816359 1.3830062e-38
2.7369525 -1.7187386 0.056586623 1.1985418e-38
2.7719884 -1.6887032 0.038356461 1.1985774e-38
2.858815 -1.6571977 0.053641059 1.0326617e-38
2.9516778 -1.6219323 0.0440722 9.6805383e-39
3.012156 -1.6137135 0.017637597 1.0234437e-38
3.1625154 -1.6109716 0.054113835 8.6663976e-39
3.2597256 -1.6362175 0.049716543 6.8224892e-39
3.3162632 -1.624347 0.049598016 5.8076156e-39
2.9831421 -1.5929109 0.084769763 1.0049321e-38
3.0422559 -1.5879221 0.047636997 1.0049328e-38
3.115299 -1.5951163 0.045432262 9.4039627e-39
3.2693808 -1.5420957 0.046505556 5.3451843e-39
3.3064666 -1.5929276 0.055034488 5.715413e-39
3.1874046 -1.4224926 0.048321754 6.266049e-39
3.2222025 -1.4723358 0.051951937 6.0816592e-39
3.1431091 -1.3490906 0.049100265 6.3586048e-39
3.0736294 -1.237978 0.038625836 6.8199515e-39
3.1119716 -1.2764039 0.069347247 6.7270314e-39
2.9755077 -1.120961 0.037347384 5.0689632e-39
3.033747 -1.1700872 0.050261952 6.6355672e-39
2.8939176 -1.041838 0.048905075 1.935395e-39
2.9241691 -1.0338192 0.047397867 3.2257779e-39
3.0088356 -1.0128418 0.086269706 6.3590168e-39
2.9705267 -0.98144567 0.025937883 4.1470237e-39
3.0432391 -0.94108832 0.054408506 6.4508551e-39
3.0657306 -0.84783471 0.048354976 5.8980358e-39
3.1111627 -0.80418825 0.09058623 4.6998598e-39
3.0864015 -0.77988672 0.016717019 5.8061891e-39
3.1323662 -0.74965924 0.053827643 5.6218048e-39
