# .PCD v0.7 - Point Cloud Data file format
VERSION 0.7
FIELDS x y z rgb
SIZE 4 4 4 4
TYPE F F F F
COUNT 1 1 1 1
WIDTH 1048
HEIGHT 1
VIEWPOINT 0 0 0 1 0 0 0
POINTS 1048
DATA ascii
7.0489082 2.5147707 -0.086376563 1.6412963e-38
7.1594992 2.5190775 -0.078432396 1.6044178e-38
7.2595825 2.545351 -0.08635059 1.5951982e-38
7.3268499 2.5399182 -0.089060895 1.5491004e-38
7.432972 2.576776 -0.096462294 1.5398809e-38
3.2862573 2.6075354 -0.051894441 9.1298575e-39
3.3510296 2.6453004 -0.055712931 9.1298575e-39
3.4263732 2.6857853 -0.065148398 9.1302148e-39
4.1740341 2.628442 -0.056929972 7.1008417e-39
4.225862 2.6747396 -0.049820159 7.0090063e-39
7.3813682 2.6014681 -0.095792614 1.6043819e-38
7.410356 2.6009939 -0.096168794 1.5951622e-38
3.471524 2.7150531 -0.045472004 9.2220517e-39
3.5469205 2.7513173 -0.049029093 9.4060828e-39
3.6226747 2.7910681 -0.056921765 9.5904727e-39
4.2780008 2.7318435 -0.071770817 7.1012019e-39
4.329896 2.7701924 -0.05084265 6.9168106e-39
3.6723819 2.818104 -0.045532398 9.683027e-39
3.74983 2.8572786 -0.050621275 9.6826683e-39
3.8139591 2.8922679 -0.056211077 9.4064401e-39
4.3682823 2.8199584 -0.068959385 7.1933975e-39
4.4435706 2.8641293 -0.041495513 7.1012019e-39
3.856477 2.9179769 -0.052692212 9.4060814e-39
3.9361088 2.9659762 -0.045877934 9.1294945e-39
4.4713397 2.9445765 -0.08556629 7.4703417e-39
4.5393701 2.9561427 -0.046356514 7.1937562e-39
3.9946578 3.0042007 -0.051843446 9.1294945e-39
4.0589294 3.0441899 -0.04993391 8.8529076e-39
4.1234226 3.0856321 -0.053136121 8.6688765e-39
4.4532261 3.0570786 -0.088862889 7.4703403e-39
4.5472093 3.0472507 -0.08364585 7.8391228e-39
4.6458707 3.0556419 -0.048337147 7.2859491e-39
4.710506 3.0833707 -0.021327915 7.1012005e-39
4.1731715 3.1164696 -0.052344508 8.5763221e-39
4.256052 3.1596951 -0.053594757 8.5763207e-39
4.3396149 3.1913049 -0.035564031 8.5763207e-39
4.4561782 3.1774921 -0.025138075 8.2997353e-39
4.5413527 3.1688864 -0.052757211 8.0235099e-39
4.6503372 3.1580899 -0.067671381 7.562536e-39
4.7515607 3.1449473 -0.039689504 7.3781461e-39
4.813436 3.1871099 -0.02427063 7.5625374e-39
4.3683457 3.2133892 -0.05858184 8.5763207e-39
4.4568963 3.2253394 -0.063940272 8.4841265e-39
4.5389738 3.2097518 -0.072637416 8.3919309e-39
4.6491432 3.2235768 -0.052581318 7.83912e-39
4.7519341 3.2506385 -0.041709971 7.2859477e-39
4.8497205 3.2534013 -0.034260247 7.6543729e-39
4.9100924 3.2881863 -0.021224488 7.8391257e-39
4.8726335 3.3172212 -0.023065668 6.9171666e-39
4.9188519 3.3231337 -0.031491116 7.3777874e-39
2.48476 -2.2062359 0.062446684 8.7596568e-39
2.5064945 -2.2129486 0.094470002 8.9436852e-39
2.4867704 -2.1826377 0.035496768 8.2983129e-39
2.5370157 -2.1367068 0.052875351 8.4816168e-39
2.5863662 -2.0799217 0.034580238 8.389061e-39
2.6405389 -2.0334153 0.052282318 8.5734509e-39
2.705415 -2.005909 0.076102987 8.7582009e-39
2.6944869 -1.9977148 0.013074042 8.5741698e-39
2.7431579 -1.9790431 0.049669422 8.7582009e-39
2.8504555 -1.9717084 0.051325094 8.6663654e-39
2.9556298 -1.9620599 0.052253373 7.9291605e-39
3.0474255 -1.9421675 0.036839843 8.2053844e-39
3.1425965 -1.9196023 0.017077859 8.666001e-39
3.2137706 -1.9029996 0.0011762783 8.8511126e-39
2.9901917 -1.8917624 0.093840681 5.9005035e-39
3.0586655 -1.8691561 0.077722959 6.0848948e-39
3.1476078 -1.8408062 0.057787579 6.4536731e-39
3.2491229 -1.8487477 0.022041146 8.1139077e-39
3.3509188 -1.8276608 0.019198805 9.6812208e-39
3.4100282 -1.8159882 0.0078572528 1.1248182e-38
3.182971 -1.7906055 0.081289478 5.8079449e-39
3.2404687 -1.7639564 0.076767974 6.8220899e-39
3.3646624 -1.7512817 0.06028514 1.1246742e-38
3.4118938 -1.7448176 0.01717142 1.2169058e-38
3.2788911 -1.6621101 0.09784808 8.9411362e-39
3.3609729 -1.6636977 0.081365056 1.124566e-38
3.4203465 -1.6503066 0.034565955 1.1892111e-38
3.1846364 -1.5331396 0.096501656 1.8526941e-38
3.2542863 -1.5486465 0.09331996 1.5854351e-38
3.3760779 -1.5440897 0.077572495 1.2075779e-38
3.4246984 -1.5585626 0.036874197 1.1523691e-38
3.5627224 -1.5689622 0.049364828 7.6518463e-39
3.6183167 -1.542017 0.046222068 5.901221e-39
3.5985291 -1.4173543 0.004890156 8.3904847e-39
3.6159248 -1.4524813 0.052335545 6.7313348e-39
3.5898809 -1.341975 0.033829864 9.12804e-39
3.6056063 -1.364234 0.077692226 8.7592617e-39
3.4945099 -1.2047765 0.014237466 9.6823012e-39
3.5477738 -1.2520167 0.04963129 1.0511335e-38
3.6023953 -1.2959881 0.097034894 9.3124284e-39
3.4692872 -1.1466014 0.044392709 7.6540197e-39
3.5101366 -1.1889907 0.08335977 9.312804e-39
3.3771236 -1.0276568 0.045226589 3.7821746e-39
3.4219737 -1.0757469 0.055390581 5.7179227e-39
3.2644022 -0.92852354 0.044341542 7.7480314e-39
3.3279417 -0.97492856 0.046986204 5.3495017e-39
3.2765884 -0.89485151 0.074269198 9.2245993e-39
3.3487628 -0.89554334 0.047447771 7.3792419e-39
3.4529071 -0.88806856 0.051584851 6.1788911e-39
3.5569694 -0.86207688 0.047253203 6.3607544e-39
3.623781 -0.8705436 0.047943134 7.0972348e-39
3.3720458 -0.71448231 0.014941235 6.9142925e-39
3.4477298 -0.74740976 0.056412462 4.886353e-39
3.5140536 -0.79091489 0.053443931 6.9142883e-39
3.2935636 -0.6107136 0.090917006 5.2562257e-39
3.3662887 -0.66222715 0.053238928 3.7814558e-39
3.4555597 -0.64481127 0.031194692 5.7190227e-39
3.5255365 -0.61935592 0.0063104411 4.6101388e-39
3.610939 -0.60795122 2.2892724e-05 3.2261226e-39
3.2930467 -0.54798138 0.096329123 4.9799989e-39
3.3519073 -0.55509549 0.076417007 3.9658484e-39
3.44503 -0.55669838 0.038779601 4.1502397e-39
3.5497627 -0.5506587 0.01088742 6.2696476e-39
3.6023178 -0.59350955 2.2838065e-05 3.9640435e-39
3.0837672 -0.4077715 0.082896113 5.8111987e-39
3.1523354 -0.41998363 0.062387057 5.2576662e-39
3.24719 -0.45082903 0.05428436 4.8885236e-39
3.3467686 -0.46903053 0.028738698 6.5480407e-39
3.4390252 -0.4847672 0.012731552 1.0235497e-38
3.0534012 -0.3503617 0.063069351 6.5487638e-39
3.1536968 -0.35382727 0.048608389 6.1799813e-39
3.2353315 -0.32215637 0.039979346 3.7825334e-39
3.3297987 -0.31253898 0.0073641539 8.1160867e-39
3.2733111 -0.2972692 0.062910482 3.5048605e-39
3.3538826 -0.29225823 0.047772981 3.8740045e-39
3.4468148 -0.28456533 0.042051148 4.4268168e-39
3.556071 -0.27683091 0.05043906 4.9796276e-39
3.6450627 -0.2672686 0.064229205 5.2558502e-39
3.7432466 -0.26196048 0.056288842 8.6674444e-39
3.846987 -0.26226723 0.05616229 1.0142212e-38
3.9427991 -0.26451653 0.05063216 1.1340751e-38
4.0485387 -0.26221514 0.057498183 1.2539291e-38
4.154357 -0.26340446 0.048203114 1.5489903e-38
4.258924 -0.25619707 0.044073194 1.7794066e-38
4.3468986 -0.23293486 0.048975632 1.714797e-38
4.4319067 -0.21307398 0.03639257 1.6594436e-38
4.3943844 -0.19464943 0.095122054 1.6871384e-38
4.4601851 -0.19130835 0.062961154 1.6778827e-38
4.5438313 -0.184985 0.048576053 1.5672482e-38
4.6515317 -0.17840593 0.047504663 1.2721865e-38
4.7528677 -0.17132904 0.040903222 9.3106348e-39
4.8549356 -0.15452248 0.046928089 8.2039327e-39
4.9442077 -0.1246793 0.047540106 8.7567477e-39
5.0013704 -0.10609126 0.025285706 9.9560126e-39
5.0519853 -0.079806827 0.047088232 8.848579e-39
5.1415348 -0.045270447 0.045969684 9.8627254e-39
5.2452521 -0.020255098 0.050464235 9.9545566e-39
5.3116932 -0.0076930234 0.048379689 1.0600644e-38
5.3594866 0.010844897 0.040084988 1.2905531e-38
5.4530401 0.049607404 0.034710042 9.4946589e-39
5.5429549 0.072319686 0.063722238 1.3550534e-38
5.6291914 0.089712247 0.084299132 2.2584974e-38
5.551898 0.12141334 0.0122594 5.2540327e-39
5.6560159 0.13074708 0.041130342 1.3366507e-38
5.7484751 0.14485078 0.056015201 1.9542885e-38
5.8477345 0.17407183 0.058252871 2.0648508e-38
5.9174027 0.19376019 0.080296934 1.6590457e-38
5.7779932 0.20670804 3.6631467e-05 1.4657241e-38
5.8729939 0.21963927 0.014891701 2.1940326e-38
5.9533467 0.24239908 0.042874761 1.8896066e-38
6.0388994 0.27491993 0.065523639 1.7327661e-38
5.9873033 0.30487758 3.7958456e-05 2.0187518e-38
6.0686531 0.32033569 0.023800606 1.723582e-38
6.1512942 0.35013223 0.0503911 1.6220952e-38
6.2158408 0.38437143 0.079188414 1.4193015e-38
6.1832671 0.41100547 0.0099639213 1.6497895e-38
6.2588449 0.44571805 0.043373991 1.4930216e-38
6.3255439 0.48028883 0.076105848 1.5485917e-38
6.2923298 0.50600028 0.016184498 1.4837298e-38
6.3520446 0.54717773 0.048928585 1.5948346e-38
6.4065528 0.59425831 0.045325764 1.6688439e-38
6.4595766 0.63468122 0.050048381 1.7243789e-38
6.5151081 0.68435383 0.04270184 1.7244875e-38
6.5608778 0.73543084 0.046112005 1.6969378e-38
6.6176915 0.78570461 0.047791917 1.6324012e-38
6.66994 0.82374758 0.04445355 1.5586448e-38
6.7394128 0.87061816 0.051664419 1.5032916e-38
1.9818492 0.92438132 0.088578179 8.0228149e-39
2.0553341 0.95184994 0.068488382 8.1153706e-39
2.1487956 0.97098202 0.043085206 8.1150105e-39
2.2411139 0.97294182 0.041557018 8.5756285e-39
2.3121092 0.98098344 0.086428076 8.7603757e-39
6.7822642 0.91515505 0.037226595 1.4110239e-38
6.84515 0.95436823 0.053757396 1.3833653e-38
6.9103827 0.98707187 0.062725335 1.3557427e-38
2.0944636 1.0025561 0.089144558 9.2231531e-39
2.1552992 1.0274203 0.048456978 9.0384045e-39
2.2354739 1.0783645 0.048967559 9.5001015e-39
6.9556546 1.0196409 0.052724995 1.2266686e-38
7.0469556 1.0689447 0.040033113 7.5639933e-39
7.1025209 1.0891695 0.03078465 1.109223e-39
2.2804911 1.1243979 0.07213477 9.6852089e-39
2.343071 1.1613865 0.046776745 9.3164263e-39
2.4126456 1.190434 0.014109067 8.763254e-39
7.0717106 1.1441731 0.00832632 2.4917973e-39
7.146719 1.1413093 0.046985649 8.6710583e-39
7.2377667 1.1756512 0.071317703 1.4295349e-38
2.3834498 1.2163805 0.070007764 7.2881225e-39
2.4442282 1.2579671 0.038913723 8.1178846e-39
7.0615511 1.2424654 0.0034569164 1.6620381e-39
7.1497526 1.2498591 0.019491347 3.3219167e-39
7.2572794 1.2425437 0.04312804 1.3280838e-38
7.351016 1.2465037 0.07345473 1.4294989e-38
7.4229307 1.2851716 0.082663231 1.4109879e-38
2.4837852 1.3240299 0.06061681 7.3803209e-39
2.5215831 1.3689867 0.041725691 6.7338739e-39
7.0652499 1.3450147 0.0017512324 2.4003206e-39
7.1589122 1.3496242 0.015161503 5.3516569e-39
7.2496724 1.3496462 0.028821427 1.1252176e-38
7.341248 1.3458707 0.043187566 1.4018043e-38
7.4612703 1.3422296 0.072414748 1.3187562e-38
7.5157852 1.3769143 0.0851276 1.2541834e-38
2.566741 1.4273193 0.045448929 6.179261e-39
2.6223738 1.4800403 0.051487602 3.965847e-39
7.0752068 1.4167199 4.4855573e-05 1.7549456e-39
7.1606712 1.4337804 0.005224986 4.5218935e-39
7.2435389 1.4556504 0.010501856 7.6565421e-39
7.3658767 1.4412719 0.031054733 1.1897542e-38
7.4487772 1.4613076 0.044710871 1.1804987e-38
7.5497532 1.4545617 0.080252603 1.2357443e-38
2.6701901 1.5269642 0.050383415 3.044248e-39
2.720742 1.5723716 0.035818893 3.0442466e-39
7.2836914 1.5215132 4.6177331e-05 7.8405718e-39
7.3592429 1.5635321 0.023580808 1.1620593e-38
7.4441066 1.5568478 0.05926986 1.106706e-38
7.5582795 1.5380259 0.079051912 1.0421332e-38
2.7725995 1.6144956 0.027688345 3.412669e-39
2.836076 1.6603303 0.016402317 3.5048647e-39
7.391058 1.6025798 0.026707036 1.2265961e-38
7.4513173 1.628723 0.047679413 1.1988655e-38
7.5444403 1.6772261 0.051841255 1.2173046e-38
2.8926563 1.7017815 0.0083729085 3.8736458e-39
2.9448762 1.7303995 0.022110488 4.2424297e-39
4.3720527 1.7910542 0.092537612 9.0373199e-39
7.5930171 1.7011408 0.076731302 1.2080492e-38
7.653028 1.7402023 0.05235707 1.2265242e-38
7.7194562 1.7823738 0.041807745 1.2449271e-38
4.4501848 1.8200581 0.086071454 9.2217126e-39
4.5403323 1.851266 0.085175581 9.0376801e-39
4.6247849 1.8868115 0.07676395 8.8532874e-39
7.7694407 1.8159415 0.049679041 1.2357077e-38
7.848928 1.8666303 0.044599373 1.2449273e-38
7.9040384 1.8962536 0.0057496307 1.2910608e-38
4.7425661 1.9314536 0.077213407 8.8529287e-39
4.8710656 1.9767563 0.082603946 9.2220699e-39
4.9247599 1.9914398 0.085288413 9.5912112e-39
7.8879757 1.907575 0.077802666 1.2172687e-38
7.9465981 1.9479942 0.049165152 1.2449273e-38
8.0149651 1.9871099 0.02059881 1.2634023e-38
3.4724627 2.062664 0.041772708 6.1788939e-39
3.5134716 2.092998 0.043102104 6.3636438e-39
4.9594035 2.0161953 0.06798698 9.6826879e-39
5.0518279 2.0464122 0.076600812 1.0329138e-38
5.1483326 2.0762486 0.083614103 1.1435124e-38
5.2247953 2.0939102 0.094265357 1.2357079e-38
6.163547 2.0966432 0.097850166 2.3049985e-38
6.2077289 2.0893219 0.098551579 2.286595e-38
7.9775152 2.0187495 0.083161004 1.2264883e-38
8.0498095 2.0509043 0.046704713 1.2541469e-38
8.1117058 2.0865076 0.015094454 1.2818413e-38
2.3927934 2.1528015 0.0048530125 3.5045045e-39
2.4259222 2.1734564 0.01568402 4.6112094e-39
3.5702803 2.1347358 0.05625416 6.7327851e-39
3.6281002 2.1803088 0.058113597 6.7327851e-39
5.1860743 2.112072 0.059886914 9.4990211e-39
5.269505 2.1143649 0.08366105 1.2633666e-38
5.356894 2.1416726 0.079896234 1.4200993e-38
5.437479 2.157377 0.080621831 1.4200634e-38
5.5280628 2.171567 0.083781049 1.4292471e-38
5.621181 2.1865408 0.089246817 1.4476503e-38
6.1638603 2.1529796 0.079828866 2.3234018e-38
6.2408123 2.157531 0.060305037 2.2957788e-38
6.3466296 2.1693275 0.061652467 2.1482657e-38
6.4592643 2.1833074 0.074581124 1.7887744e-38
7.9928722 2.1827724 0.092298798 1.254147e-38
8.0522461 2.1481707 0.068353035 1.2449274e-38
8.1354065 2.1512926 0.017620467 1.2818413e-38
2.4719739 2.2190635 0.030736804 5.4413274e-39
2.5494845 2.2667239 0.024577219 7.3774328e-39
2.6738679 2.2628164 0.046342611 8.9461907e-39
2.7528174 2.2360492 0.052254591 4.7041211e-39
2.8304687 2.265146 0.046959814 5.5331629e-39
3.6807494 2.22017 0.04869514 6.7327851e-39
3.7436609 2.2706313 0.047966547 6.9168162e-39
5.3841248 2.2004969 0.023336558 1.7979934e-38
5.4894128 2.2223976 0.050207973 1.5030036e-38
5.5570779 2.244417 0.042822093 1.6136023e-38
5.6581149 2.260746 0.05311048 1.6781393e-38
5.7477865 2.2570167 0.072205111 1.6135666e-38
5.8506098 2.2771189 0.076057673 1.6965069e-38
5.9116688 2.288168 0.085331619 1.9823132e-38
6.1956573 2.2074153 0.087930031 2.3326215e-38
6.2412601 2.2531943 0.04569928 2.3325853e-38
6.3496923 2.2277565 0.014700631 2.2957428e-38
6.4534364 2.2331374 0.028014302 2.056034e-38
6.5359831 2.2705631 0.014142959 1.9454351e-38
6.6600389 2.2686219 0.047207341 1.4383952e-38
6.7347255 2.266681 0.068052091 1.4292474e-38
6.8462467 2.2893832 0.07662344 1.4293194e-38
6.9065952 2.2946463 0.089718759 1.429319e-38
7.9800615 2.2590501 0.08677581 1.2633666e-38
8.0482244 2.2537003 0.05409516 1.2634023e-38
8.1356916 2.2443113 0.011769906 1.2910608e-38
2.5744591 2.3211422 0.056694716 6.3632837e-39
2.6466715 2.3352499 0.067993425 9.1298631e-39
2.8824921 2.310544 0.023617303 6.1792498e-39
2.9461122 2.3500221 0.04349032 6.7320634e-39
3.0117917 2.3927689 0.058257896 7.1923241e-39
3.7891576 2.3094666 0.060640629 6.9168162e-39
3.8472114 2.3551555 0.051943336 6.9168148e-39
3.9064493 2.3968372 0.025378665 7.0090105e-39
5.6830134 2.319917 0.0082342532 1.3646378e-38
5.7598324 2.3298028 0.019416438 1.7518595e-38
5.8465734 2.3404593 0.027965186 1.9638737e-38
5.9504232 2.3595634 0.037452985 2.1390457e-38
6.0400028 2.374114 0.043638576 2.2589e-38
6.1528993 2.3698411 0.076068521 2.286595e-38
6.2711816 2.3512247 0.050362173 2.3234016e-38
6.658885 2.3132243 0.0048366622 1.5950917e-38
6.7508955 2.3180187 0.01536575 1.4752732e-38
6.8551345 2.3323627 0.018929573 1.4660176e-38
6.9494581 2.3376787 0.0295163 1.4476862e-38
7.0496211 2.3483458 0.03849829 1.4200275e-38
7.1554794 2.3635492 0.041930985 1.3924046e-38
7.2471471 2.3718553 0.045509763 1.383185e-38
7.3488555 2.3775711 0.046116654 1.3739653e-38
7.4499893 2.3721182 0.051696707 1.3554902e-38
7.5489101 2.3595128 0.047864318 1.3371229e-38
7.645319 2.3436515 0.053044062 1.3186838e-38
7.7483974 2.3364594 0.042056959 1.3094641e-38
7.8554025 2.3304293 0.049684133 1.291061e-38
7.9453769 2.3220711 0.043819152 1.2910608e-38
8.0458775 2.3173518 0.021494899 1.2910608e-38
8.1148634 2.309737 5.1446816e-05 1.3279389e-38
2.6596768 2.4108841 0.091123506 7.193043e-39
3.0572295 2.4348483 0.038526434 7.3774314e-39
3.1194906 2.4773486 0.04913025 7.6536596e-39
3.8969336 2.4022427 0.07873214 6.8246206e-39
3.9513154 2.4421694 0.048528831 6.8246206e-39
4.0102158 2.4908764 0.036163162 6.8246192e-39
6.0722194 2.4043233 0.010268309 2.3142172e-38
6.1566339 2.4150743 0.019174369 2.3234012e-38
6.2635217 2.4204791 0.024659986 2.3234015e-38
6.304636 2.4175403 0.013681759 2.332621e-38
3.1734359 2.5233176 0.030258713 8.2075508e-39
3.2412484 2.5692928 0.040366646 8.6681675e-39
4.0565801 2.5341818 0.054989114 6.8246178e-39
4.1180911 2.5836291 0.041841224 6.916812e-39
3.2899597 2.6055377 0.030898085 8.8529174e-39
3.3527265 2.6461902 0.042712126 9.1291442e-39
3.4191039 2.6889691 0.048797704 9.3135355e-39
4.1674223 2.6276131 0.050342631 6.9168134e-39
4.2263961 2.67503 0.041172899 7.0090077e-39
3.4698365 2.7193446 0.042832475 9.3135341e-39
3.551487 2.7623439 0.050536033 9.4057283e-39
3.6184301 2.7936852 0.058124229 9.4982813e-39
4.2750516 2.7161984 0.052104048 7.1012033e-39
4.3411622 2.7670922 0.045251518 7.1012033e-39
3.6637864 2.8150995 0.046230312 9.6826711e-39
3.7459736 2.8542392 0.050237752 9.5904755e-39
3.8132651 2.8895242 0.054843057 9.4060842e-39
4.3905005 2.8078437 0.049288094 7.2855931e-39
4.4483275 2.858753 0.04831576 7.1933975e-39
3.8645506 2.9207733 0.041210964 9.221693e-39
3.9490888 2.9699078 0.052389331 8.8529104e-39
4.0040531 2.9968257 0.089560404 8.8529104e-39
4.4950132 2.9071047 0.074595019 7.0090063e-39
4.5453601 2.9509983 0.052203264 7.1012005e-39
4.6026587 2.9966452 0.046509761 6.9168092e-39
3.9992812 3.0019083 0.057721484 8.7607148e-39
4.053206 3.032727 0.052537814 8.6685192e-39
4.1451473 3.0813034 0.0608063 8.5763236e-39
4.2720628 3.0752485 0.095727488 8.3919323e-39
4.3519912 3.0678365 0.079398766 8.2997367e-39
4.4312367 3.0811884 0.067584954 8.2075424e-39
4.5910563 3.0089507 0.084794961 7.8391228e-39
4.6506472 3.0480409 0.052293312 7.4703417e-39
4.7120872 3.0916786 0.026345348 7.2855917e-39
4.1840124 3.1100609 0.037214264 8.4841279e-39
4.2553682 3.1313288 0.052877717 8.4841279e-39
4.3535128 3.1452372 0.039581712 8.3919309e-39
4.4422002 3.1344273 0.019219987 8.2078984e-39
4.5478935 3.1416113 0.04621933 7.746923e-39
4.64259 3.1726785 0.06457369 7.0093608e-39
4.7471948 3.1556313 0.059276987 7.562536e-39
4.8100762 3.1878333 0.020202536 7.5628961e-39
4.6774321 3.2120709 0.026571216 7.1937506e-39
4.7564301 3.2300434 0.044683974 6.8249695e-39
4.8441024 3.2525308 0.023397321 7.5628961e-39
4.8578563 3.3029537 3.0797961e-05 6.733134e-39
2.5329244 -2.2257905 0.153133 9.3124677e-39
2.5634212 -2.1514058 0.14784876 8.6660081e-39
2.6113076 -2.1111825 0.19265129 7.8369663e-39
2.5951591 -2.0908382 0.14102399 8.6652864e-39
2.643096 -2.047735 0.14807001 8.1124741e-39
2.7116492 -2.0131571 0.15841947 6.914654e-39
2.7506173 -1.9786439 0.14991486 6.914654e-39
2.8505123 -1.9486163 0.15075092 6.0848962e-39
2.9365146 -1.9170382 0.14588267 5.4398841e-39
2.9771893 -1.8751206 0.15850046 5.4391638e-39
3.0475874 -1.8469888 0.14378808 5.5313594e-39
3.1291506 -1.8174926 0.1283367 5.4388051e-39
2.8784492 -1.7274486 0.19590935 1.3641663e-38
2.9493322 -1.7435431 0.18503042 9.2159266e-39
3.0542054 -1.7537174 0.1663159 6.8206535e-39
3.1643181 -1.7645588 0.13137574 5.8994203e-39
3.2119861 -1.7388325 0.10837082 5.807582e-39
2.8747661 -1.6942463 0.19719943 1.9818752e-38
2.9611235 -1.6693804 0.18283302 1.8987915e-38
3.0455115 -1.6308508 0.16645129 1.5114984e-38
3.1424668 -1.6460443 0.1339809 8.2950465e-39
3.2416391 -1.6614754 0.10641836 8.7571065e-39
3.3022454 -1.6659966 0.10006547 8.7571093e-39
3.0791516 -1.586548 0.14896551 1.631353e-38
3.1442857 -1.545117 0.15175439 1.391319e-38
3.2410755 -1.5152467 0.11430831 1.5485927e-38
3.344836 -1.5179027 0.12090869 1.1983218e-38
3.4635611 -1.5098413 0.12972791 9.9563643e-39
3.5555418 -1.533811 0.14683354 8.0206232e-39
3.6317217 -1.5272834 0.1489284 5.9012182e-39
3.1776536 -1.480067 0.16490713 1.6774501e-38
3.2431602 -1.4782717 0.16539386 1.4102994e-38
3.3520913 -1.4837762 0.15840594 1.1799188e-38
3.4277954 -1.4887258 0.16126156 1.0970513e-38
3.6485505 -1.4526232 0.15090409 6.4551108e-39
3.6312203 -1.3483502 0.14902306 8.6674262e-39
3.5730908 -1.2301357 0.13786602 1.0880116e-38
3.621366 -1.2705849 0.16546863 9.8656022e-39
3.4871962 -1.1209031 0.12446249 6.2700049e-39
3.5353584 -1.1581627 0.15443164 6.4540248e-39
3.3930335 -1.0171744 0.11230696 3.6888972e-39
3.443563 -1.0505772 0.15517907 4.3335435e-39
3.2662652 -0.91574043 0.13060103 7.6554701e-39
3.3476324 -0.9537701 0.15544775 5.6257243e-39
3.4146833 -0.9877581 0.17944001 3.7807313e-39
3.2875781 -0.88245231 0.15162428 9.1320407e-39
3.3368766 -0.85974032 0.15677896 7.1948521e-39
3.4478018 -0.83075243 0.14427905 4.5190152e-39
3.532377 -0.86408842 0.1136604 5.7171954e-39
3.3730948 -0.72388172 0.16206619 4.8877963e-39
3.4318688 -0.76849371 0.14196879 3.5045031e-39
3.2854927 -0.62364286 0.16230957 4.520097e-39
3.3269861 -0.66542965 0.1439544 4.8881578e-39
3.1572051 -0.52417165 0.18356684 9.3164249e-39
3.2546773 -0.55298263 0.1431023 4.6119353e-39
3.3126259 -0.57836097 0.10580514 4.5186621e-39
3.0666966 -0.4127039 0.12259392 1.3095371e-38
3.16627 -0.44738877 0.15895152 1.6413695e-38
3.218781 -0.4731791 0.15273187 1.3278685e-38
2.9849417 -0.35875344 0.12372934 1.0145109e-38
3.046371 -0.3627173 0.13757381 1.1989741e-38
3.1435056 -0.35835838 0.15529869 1.3832935e-38
3.2512918 -0.33715966 0.15260758 9.9603552e-39
3.3461614 -0.33049303 0.15431078 1.0051469e-38
3.4476008 -0.32595271 0.16021869 1.0050747e-38
3.5530138 -0.31719506 0.16929306 7.3759895e-39
3.6079953 -0.30555454 0.18480937 5.9004909e-39
3.3620706 -0.29828286 0.10382818 7.1015536e-39
3.4589772 -0.29490569 0.1097977 6.4547451e-39
3.5632169 -0.29009172 0.13185811 6.0852493e-39
3.6538517 -0.27036139 0.15502323 4.2409752e-39
3.7412779 -0.24309656 0.16048287 5.3473213e-39
3.8464558 -0.23694216 0.15426767 8.6663514e-39
3.9511769 -0.23652871 0.1497837 1.0049639e-38
4.043787 -0.23526369 0.14706717 1.1340015e-38
4.1503353 -0.23280407 0.14499468 1.4843445e-38
4.2556567 -0.22150916 0.14296867 1.7885535e-38
4.3233819 -0.20813447 0.14396077 1.7700424e-38
4.3625259 -0.19467187 0.14507042 1.7239802e-38
4.4477839 -0.18235552 0.15029112 1.7331996e-38
4.5527363 -0.16717698 0.15723503 1.7977004e-38
4.6497645 -0.14844702 0.16236249 1.7792612e-38
4.7504821 -0.13579595 0.15040199 1.2905886e-38
4.8577394 -0.12689842 0.14164738 1.1430401e-38
4.9459543 -0.1109727 0.13369282 1.0231505e-38
4.9758306 -0.098371051 0.16876821 1.9543603e-38
5.0550542 -0.0890617 0.13723291 1.2075053e-38
5.1535935 -0.071681798 0.14990187 1.4564326e-38
5.2578554 -0.05505535 0.1559747 1.6961046e-38
5.3482952 -0.033128306 0.15212977 1.8251784e-38
5.4325261 -0.012025377 0.15523712 1.9449605e-38
5.4777961 0.0057328888 0.1423392 1.9357771e-38
5.5531011 0.034609031 0.14434068 1.9080461e-38
5.6500168 0.070665687 0.15607339 1.6221676e-38
5.7178869 0.090712465 0.17822556 1.5484833e-38
5.6913738 0.10096183 0.11088578 1.806487e-38
5.7574649 0.11383975 0.14507295 1.5668142e-38
5.8477211 0.14811876 0.14896671 1.4838383e-38
5.9376602 0.18291458 0.15450139 1.4008265e-38
5.9779515 0.21077649 0.13023993 1.4653996e-38
6.0477176 0.23837435 0.14771383 1.4101184e-38
6.146565 0.27617958 0.15901768 1.4746916e-38
6.212522 0.29543647 0.18676372 1.6223854e-38
6.1686926 0.32215542 0.11930207 1.3086309e-38
6.2449398 0.34841377 0.15203513 1.5578124e-38
6.3304601 0.38293535 0.17550766 1.6597343e-38
6.2804112 0.41268131 0.11896207 1.4840924e-38
6.3570685 0.44251108 0.1313747 1.5120764e-38
6.4435077 0.46517619 0.16672356 1.4570851e-38
6.5036602 0.49067476 0.19707553 1.3466307e-38
6.3895512 0.54177475 0.10890579 1.5677555e-38
6.4343414 0.55275822 0.15656568 1.4756686e-38
6.507225 0.50971901 0.19718356 1.2543994e-38
6.4682384 0.63331884 0.14740781 1.7061937e-38
6.516541 0.68449461 0.15352379 1.678535e-38
6.5646243 0.73307639 0.15007858 1.6416567e-38
6.6256866 0.78264058 0.15021972 1.6139981e-38
1.9686939 0.89621288 0.1860228 7.8384236e-39
2.0021257 0.89914566 0.18920036 8.0224561e-39
6.6790748 0.817765 0.14734282 1.5955589e-38
6.7499681 0.85857612 0.14936608 1.5678644e-38
6.8137646 0.89441681 0.15809852 1.5401697e-38
1.9655713 0.91743851 0.15067011 7.8387837e-39
2.0407109 0.9407016 0.14630464 8.2994018e-39
2.1477635 0.9475919 0.14594708 8.2990402e-39
2.2497995 0.97571051 0.14509515 8.6681787e-39
2.3242886 0.99339837 0.13404559 8.9447628e-39
6.8608422 0.928168 0.14903417 1.5309501e-38
6.9391623 0.97498906 0.15302922 1.5032555e-38
2.0864093 1.0083755 0.15528411 9.0384031e-39
2.1558144 1.0498596 0.15170699 9.5919356e-39
2.2155561 1.0894463 0.14687882 9.8688799e-39
2.3629994 1.0087111 0.16307348 9.1287939e-39
2.4378703 1.0348718 0.18437517 9.2209895e-39
2.5385835 1.0692481 0.19352311 9.2209881e-39
6.9888492 1.0078794 0.13955005 1.4940718e-38
7.0518446 1.0431191 0.14934225 1.475597e-38
7.1219206 1.0853062 0.15513653 1.4571219e-38
2.2564008 1.1346742 0.14956066 1.0145465e-38
2.3146412 1.1879839 0.1459578 9.7777618e-39
7.1702046 1.1191056 0.15176512 1.411024e-38
7.2532196 1.1676422 0.1515225 1.3648901e-38
7.3003383 1.1932282 0.11589744 1.429427e-38
2.3673019 1.2273581 0.15697578 9.0401968e-39
2.4263349 1.2758831 0.14552675 7.9338534e-39
7.357224 1.2339427 0.14887384 1.3187562e-38
7.4267483 1.2826962 0.14948016 1.2726584e-38
2.4737244 1.3320277 0.14945917 7.1037354e-39
2.5144832 1.3808466 0.14849795 5.8119176e-39
7.4788904 1.3249366 0.15109996 1.2726586e-38
7.5221615 1.3760033 0.15198037 1.2634749e-38
2.5594656 1.430433 0.15316279 3.9672847e-39
2.616432 1.4814956 0.13598809 3.2290008e-39
3.5588899 1.459656 0.19768032 9.4979281e-39
3.6214476 1.4818293 0.1950651 9.5901238e-39
7.57407 1.4458064 0.1495025 1.2173052e-38
7.6038985 1.4896674 0.17557004 1.1619878e-38
2.6625566 1.5199957 0.13642156 4.2435101e-39
2.7351868 1.5695251 0.14879118 5.8111931e-39
3.6821964 1.5084587 0.18948303 9.5901238e-39
3.7519212 1.5326391 0.18867038 9.4979295e-39
3.8596988 1.5724448 0.18653671 9.4053738e-39
3.9489567 1.5797396 0.19221468 9.7745164e-39
4.0212531 1.5869069 0.19292663 1.0050743e-38
7.4781418 1.5944829 0.11333181 1.0513526e-38
7.5789423 1.5553037 0.13616319 9.9603538e-39
7.608346 1.5501226 0.169664 9.9607125e-39
2.7907772 1.6084296 0.13934393 5.6264417e-39
2.8440695 1.6395395 0.15394597 6.4565611e-39
2.9247253 1.690684 0.15747172 6.733148e-39
3.971087 1.6122153 0.18048732 9.0365926e-39
4.0534968 1.6350937 0.17678155 8.4834203e-39
4.1406465 1.6627004 0.17262971 8.7603701e-39
4.2314692 1.6778928 0.18145314 9.5897706e-39
4.3040409 1.6969728 0.18630563 1.0142944e-38
7.4849286 1.6140988 0.12866288 1.0882667e-38
7.5566473 1.641971 0.15711713 1.0974503e-38
7.6204934 1.6840842 0.1820752 1.1250731e-38
2.9647038 1.7180791 0.15033589 6.4565611e-39
3.0464263 1.7682868 0.16127336 6.6409524e-39
3.1007838 1.7996261 0.18790181 6.917898e-39
4.1905103 1.7005746 0.15720935 8.2993961e-39
4.2625194 1.7246513 0.15581644 9.4057409e-39
4.359436 1.7613834 0.14438505 1.0051469e-38
4.4371142 1.7806549 0.15728258 1.1065981e-38
4.5146232 1.7669739 0.19542095 1.0512083e-38
7.6606956 1.7348528 0.15402475 1.1619514e-38
7.718873 1.7868819 0.15594509 1.1711709e-38
3.1502938 1.834785 0.16464163 6.6409524e-39
3.2199938 1.8801723 0.16619943 6.7331466e-39
4.4720302 1.8180355 0.11938497 9.8674407e-39
4.5530372 1.8259779 0.15309341 1.1250732e-38
4.6488962 1.8625946 0.14952661 1.1434765e-38
4.7476435 1.871841 0.18496758 1.5215865e-38
4.862021 1.8723494 0.19410203 1.4754888e-38
4.938602 1.8682679 0.19665447 1.3186844e-38
5.0391474 1.8849598 0.19113305 1.4108084e-38
5.1143413 1.8984013 0.1918674 1.4661259e-38
7.7681293 1.8353568 0.15352811 1.1896101e-38
7.8266101 1.87816 0.13503902 1.1988296e-38
3.2700906 1.9133948 0.16612491 6.7331466e-39
3.3486595 1.968295 0.1682094 6.7331466e-39
4.7633753 1.9134018 0.14043023 1.1250375e-38
4.8436217 1.9332043 0.15375899 1.2818418e-38
4.9535203 1.948007 0.16938654 1.3648541e-38
5.0551491 1.9516033 0.18205988 1.576976e-38
5.143961 1.9578234 0.17539573 1.4754171e-38
5.2269187 1.9762211 0.16506656 1.3831135e-38
5.3345728 1.9801604 0.18472667 1.659629e-38
5.9692736 1.9735665 0.18844952 2.3234375e-38
6.0404468 1.9763359 0.17723469 2.3050344e-38
6.1360078 1.9854902 0.18151383 2.2773757e-38
6.2595372 1.9983943 0.19870846 2.1667408e-38
7.865263 1.9443903 0.15681814 1.1988296e-38
7.9165187 1.9761521 0.11805037 1.2172687e-38
3.4495952 2.0421264 0.16147658 6.8253409e-39
3.5075266 2.0862923 0.15684961 6.8253409e-39
5.0632696 2.0181763 0.14114366 1.0420613e-38
5.1681604 2.0444839 0.14588514 1.0605723e-38
5.2503209 2.0477736 0.14027329 1.2080133e-38
5.3400769 2.0636244 0.12842509 1.3554546e-38
5.4408283 2.0635793 0.14138347 1.5489578e-38
5.5179954 2.0640962 0.16726692 1.76108e-38
5.6183362 2.0875001 0.1763338 2.0281957e-38
5.9864535 2.0177307 0.18024345 2.3234376e-38
6.0482712 2.0574846 0.15205152 2.3234018e-38
6.1439261 2.049684 0.13030744 2.2865954e-38
6.2508168 2.0631461 0.1342542 2.1944355e-38
6.3107791 2.0329645 0.18212415 2.1483375e-38
6.4621463 2.0847921 0.17410366 1.8625309e-38
6.5086923 2.0920234 0.18314302 1.8532755e-38
7.889535 2.0111506 0.18443397 1.1988296e-38
7.9410748 2.0535147 0.14892273 1.2172687e-38
8.0066519 2.0883613 0.10400882 1.2357079e-38
3.5688493 2.1330004 0.15017202 6.8253409e-39
3.6279089 2.1815236 0.15045877 6.8253395e-39
5.3693171 2.11308 0.1007335 1.4292827e-38
5.4589286 2.112906 0.1071438 1.4014805e-38
5.524704 2.134398 0.1036487 1.3277959e-38
5.652554 2.147155 0.13046651 1.7517883e-38
5.7852006 2.1599584 0.16693391 2.1481938e-38
5.8538318 2.1813388 0.16893959 2.2586487e-38
5.953814 2.1928017 0.19473536 2.2680482e-38
6.0905046 2.1119611 0.15759863 2.3234018e-38
6.142487 2.1603942 0.14712931 2.3234019e-38
6.350337 2.114408 0.11456528 2.1206431e-38
6.4481726 2.1256077 0.12840359 1.8533475e-38
6.5347056 2.1710896 0.11316992 1.6504454e-38
6.6519241 2.1716254 0.14401241 1.6136027e-38
6.7216578 2.1556261 0.18428719 1.6228223e-38
6.8566117 2.1890137 0.197879 1.4568705e-38
7.9524112 2.1526575 0.1507246 1.2357077e-38
8.0091448 2.1294441 0.1040412 1.2357079e-38
2.6844237 2.2667325 0.15217716 9.2224174e-39
2.7483301 2.223134 0.14973836 5.810826e-39
2.8402865 2.2559853 0.15308514 6.1788897e-39
2.900661 2.2986264 0.1632207 6.6395105e-39
3.6745951 2.2222788 0.15201761 6.8253395e-39
3.7276762 2.2697358 0.15010926 6.9168162e-39
5.8409305 2.2214549 0.12364367 1.9823134e-38
5.956665 2.2404935 0.14247853 2.2219861e-38
6.0540581 2.2559316 0.15849589 2.2957428e-38
6.1746125 2.2395976 0.16217788 2.3234018e-38
6.2215405 2.2626231 0.1384512 2.3325854e-38
6.7457809 2.2022564 0.14605421 1.4385029e-38
6.8458114 2.2414911 0.13670172 1.4384671e-38
6.9533167 2.2700326 0.13618556 1.4384669e-38
7.0427628 2.2667518 0.16663095 1.4477224e-38
7.1262841 2.2785141 0.18169384 1.4569059e-38
7.8811049 2.2924747 0.16869165 1.2817697e-38
7.9313765 2.2486556 0.14628191 1.2541469e-38
2.5901427 2.3473825 0.17690428 9.4057325e-39
2.6320291 2.3313642 0.14555639 9.4060898e-39
2.9375651 2.3266559 0.15651956 7.0082902e-39
3.0158348 2.385545 0.14062722 7.2852358e-39
3.7780929 2.3140805 0.15197664 6.8246206e-39
3.8324995 2.3633068 0.1511535 6.8246206e-39
6.0940185 2.3191915 0.10993721 2.2773394e-38
6.1638536 2.3217502 0.12185434 2.3049982e-38
6.2324362 2.3224008 0.11451446 2.3234016e-38
7.0394707 2.3150597 0.11178144 1.4569061e-38
7.1510181 2.3362911 0.11696569 1.4477224e-38
7.2457209 2.3330696 0.14746036 1.4292832e-38
7.3513412 2.3601997 0.14145054 1.4108798e-38
7.457799 2.3663437 0.1414987 1.3739656e-38
7.5533233 2.3500304 0.15464041 1.3463067e-38
7.6460423 2.3344765 0.15352269 1.3186839e-38
7.7454824 2.3223686 0.14659294 1.3002088e-38
7.8424349 2.3106191 0.14445898 1.2817698e-38
7.9097672 2.3046196 0.10655037 1.2725861e-38
2.6521518 2.4096985 0.1100059 7.7462168e-39
3.0636151 2.4222236 0.12617257 7.5618213e-39
3.1216898 2.4647737 0.1603497 7.5618227e-39
3.8831244 2.4078951 0.15025011 6.8242619e-39
3.9430881 2.4590232 0.14889005 6.8246192e-39
3.1830821 2.5125873 0.12469935 8.2071907e-39
3.2584631 2.5670764 0.16188411 8.1153538e-39
3.3013973 2.5971384 0.1762446 8.3915806e-39
3.9929507 2.5069919 0.16602394 6.8246192e-39
4.0455556 2.5486853 0.14573433 6.8246178e-39
4.1040459 2.5950425 0.12435386 6.8242591e-39
3.3557739 2.6360397 0.15605253 8.9447529e-39
3.4289775 2.6830175 0.15874802 9.3138942e-39
4.1492343 2.6345224 0.15012892 6.732062e-39
4.2231693 2.6931136 0.15070322 6.6398664e-39
3.4786377 2.7149353 0.14776573 9.4060884e-39
3.5542099 2.7488637 0.15579394 9.6826739e-39
3.6375759 2.7792528 0.15483576 9.6826711e-39
3.7068784 2.7940054 0.18720478 9.3138886e-39
4.2709565 2.7314031 0.15458593 6.5480295e-39
4.3290329 2.7775602 0.15057738 6.6402251e-39
3.6804657 2.8071415 0.12558813 9.5904741e-39
3.7484431 2.8315389 0.14775699 9.3138872e-39
3.8414414 2.8748665 0.16263591 9.0373031e-39
3.9175179 2.89305 0.19444416 8.9447501e-39
4.0720091 2.8785219 0.19291908 8.8525545e-39
4.1427178 2.8781483 0.18177219 8.6681633e-39
4.2088614 2.8905311 0.18522659 8.575969e-39
4.3775964 2.8253946 0.16509868 6.916812e-39
4.4288077 2.8737173 0.15015383 7.3777888e-39
3.8808899 2.9123275 0.12741983 9.0373017e-39
3.9527392 2.9360907 0.15318172 8.9447473e-39
4.0547376 2.9530237 0.17106469 8.7607162e-39
4.1474977 2.9489262 0.15513806 8.7607162e-39
4.2444196 2.9525146 0.14181715 8.4841321e-39
4.3391948 2.9758034 0.15713729 7.9309583e-39
4.4634209 2.9360948 0.16057336 8.1157111e-39
4.5178256 2.9719698 0.13036692 8.1157097e-39
4.0760765 3.0152614 0.12167779 8.7607148e-39
4.1539059 3.0326533 0.12892775 8.6685192e-39
4.2379422 3.0405838 0.11229106 8.5763236e-39
4.3537235 3.0175326 0.10980948 8.3000982e-39
4.4592938 3.0328934 0.16015366 7.1011991e-39
4.5445919 3.0474834 0.15297653 7.1015592e-39
4.6276159 3.0790243 0.12198572 7.9313171e-39
4.5748978 3.1190846 0.12427902 6.8249695e-39
4.6470323 3.1330957 0.11532591 6.6405783e-39
4.7074018 3.1451991 0.10302794 7.6547302e-39
2.4872272 -2.2082999 0.26161924 6.2692846e-39
2.5540576 -2.2371674 0.22843902 9.5894133e-39
2.4790776 -2.1727114 0.2806688 6.1767289e-39
2.5590217 -2.1440778 0.25336206 6.4536759e-39
2.6091139 -2.1107788 0.22388966 6.1770904e-39
2.6458588 -2.0527282 0.25254804 5.7157549e-39
2.7081475 -2.0118818 0.23156275 5.5317224e-39
2.6684964 -1.948084 0.2877883 8.2957766e-39
2.7431469 -1.9700284 0.24075374 5.6235579e-39
2.843049 -1.9389296 0.22779973 5.5313608e-39
2.9234169 -1.9104482 0.21018456 5.254774e-39
2.6504533 -1.8513846 0.28177392 1.7512436e-38
2.7626753 -1.8393883 0.27191988 1.7597782e-38
2.8449414 -1.8397465 0.24787326 8.841019e-39
2.9368713 -1.8691798 0.20919573 5.899779e-39
2.7818446 -1.7890443 0.25362742 1.9813347e-38
2.8523529 -1.7534388 0.25054881 1.6023964e-38
2.8675742 -1.6706103 0.25515509 1.290085e-38
2.9419394 -1.6477436 0.24509093 1.0597762e-38
3.0416141 -1.6263493 0.24651481 1.1333516e-38
3.1432667 -1.6163253 0.26033881 6.2656651e-39
3.1654649 -1.5489441 0.24586631 7.7404266e-39
3.218257 -1.508957 0.27548289 9.5839735e-39
3.5623581 -1.5114342 0.23691818 8.942218e-39
3.6544018 -1.5184251 0.2462261 6.0852451e-39
3.1885817 -1.4610139 0.23994933 1.6591196e-38
3.2390475 -1.4595258 0.26014242 1.40108e-38
3.3465872 -1.4572855 0.2493508 1.1891026e-38
3.4401469 -1.4670939 0.25122634 1.1246384e-38
3.5362809 -1.4903941 0.27388057 9.4953918e-39
3.6840615 -1.4527749 0.24894193 6.5473064e-39
3.700551 -1.4158281 0.29765308 6.0863283e-39
3.6765203 -1.3499066 0.24887677 8.5752291e-39
3.649081 -1.2519696 0.25025544 1.0325859e-38
3.5612721 -1.1393583 0.24812767 7.5592863e-39
3.6105418 -1.1870238 0.26547524 1.2445999e-38
3.4730074 -1.0330467 0.229387 4.3324603e-39
3.5269976 -1.0658045 0.2646395 7.0057552e-39
3.3535616 -0.92293334 0.2375493 6.7324292e-39
3.4455307 -0.97441602 0.25409344 4.8867103e-39
3.2936049 -0.86187822 0.24210596 1.0882673e-38
3.3254442 -0.83611065 0.25117436 1.0420249e-38
3.3709962 -0.7541787 0.2494804 1.1063445e-38
3.4021449 -0.74033028 0.28927562 1.2906633e-38
3.2642167 -0.61910671 0.22919731 9.8685099e-39
3.3471894 -0.66276526 0.25637114 1.4661237e-38
3.420552 -0.60956788 0.29445693 5.0729106e-39
3.1674213 -0.53021562 0.21427706 1.2912776e-38
3.2429419 -0.55666864 0.2328563 9.5004575e-39
3.3417332 -0.55484748 0.26562512 1.0053274e-38
3.4503689 -0.55659562 0.28366482 9.0394807e-39
3.5486453 -0.52498806 0.29235563 7.9324087e-39
3.2444813 -0.45576778 0.22449151 1.9273193e-38
3.3402355 -0.44811103 0.25003108 1.3280468e-38
3.4447346 -0.46622109 0.27630728 1.1435833e-38
3.5191088 -0.48912022 0.2889384 1.0606076e-38
2.9611731 -0.31183609 0.26965189 1.0330941e-38
3.0645359 -0.34114796 0.25645241 1.2910966e-38
3.1421149 -0.36526579 0.24308568 1.125072e-38
3.2336383 -0.34729764 0.22085188 7.1019278e-39
3.3416111 -0.32075939 0.21365914 6.8242535e-39
3.4552832 -0.32382733 0.21337119 6.5465848e-39
3.5590789 -0.31536525 0.2172433 7.0990299e-39
3.6141391 -0.30527183 0.21258937 6.7302459e-39
2.8968925 -0.28294978 0.29465321 8.3033632e-39
2.9427893 -0.28328869 0.26591626 8.9476508e-39
3.0475712 -0.27706817 0.2572684 1.2819502e-38
3.1542742 -0.27906039 0.25337926 1.6046337e-38
3.2506771 -0.25879881 0.27018473 1.8260476e-38
3.3451924 -0.25432259 0.26030594 1.6691703e-38
3.454772 -0.26234955 0.25151676 1.6505499e-38
3.5491235 -0.25628629 0.2524707 1.4200613e-38
3.6664662 -0.24644522 0.24814688 7.1004788e-39
3.732955 -0.2225448 0.23501724 6.1781652e-39
3.8461394 -0.21374373 0.22688295 1.1248546e-38
3.9384191 -0.21219845 0.22327489 1.5304781e-38
4.0506182 -0.21128902 0.21993886 1.8531264e-38
4.1574416 -0.21079884 0.21860601 1.9913834e-38
4.2601442 -0.20768096 0.2168017 2.1573357e-38
4.310328 -0.20543122 0.20730443 2.1112386e-38
3.6717966 -0.19043058 0.29400209 1.1346172e-38
3.755177 -0.18540011 0.28641018 1.1989738e-38
3.8547301 -0.18353993 0.28144702 1.2448548e-38
3.9556787 -0.18310484 0.2747893 1.3369054e-38
4.0534201 -0.17619734 0.27629668 1.4935657e-38
4.1461501 -0.16974898 0.27418828 1.5581742e-38
4.2471623 -0.16676413 0.26892361 1.5765771e-38
4.3508792 -0.1707346 0.25094724 1.6502972e-38
4.4513812 -0.1617149 0.24781075 1.5211874e-38
4.5443797 -0.14515759 0.25079131 1.5303709e-38
4.6384935 -0.13065568 0.24879573 1.6317497e-38
4.7418604 -0.1208659 0.24922973 1.5855794e-38
4.8444052 -0.11232051 0.24591474 1.5301536e-38
4.9129224 -0.10421508 0.24099603 1.4932389e-38
4.3954825 -0.099580094 0.29806414 1.8075727e-38
4.451407 -0.086901397 0.29755414 1.7891696e-38
4.5476656 -0.080049798 0.29392543 1.7890973e-38
4.647613 -0.068735227 0.29354113 1.7982447e-38
4.7440805 -0.067375451 0.29431024 1.7428187e-38
4.8421502 -0.060179543 0.2939961 1.705904e-38
4.9658985 -0.077417746 0.26720607 1.5671763e-38
5.0508842 -0.068025678 0.25895751 1.5486287e-38
5.152462 -0.059293363 0.25255185 1.5024223e-38
5.2478271 -0.045048688 0.2477617 1.4931663e-38
5.3497038 -0.025845516 0.24676895 1.4563241e-38
5.431428 -0.0092356671 0.24106239 1.437849e-38
5.0688248 0.0021669122 0.29984885 1.7891332e-38
5.1658111 0.0078195333 0.2962653 1.7982446e-38
5.2450795 0.017413018 0.29514155 1.8165755e-38
5.3478889 0.020636519 0.29319766 1.6966842e-38
5.4600587 0.021882726 0.26955464 1.5765041e-38
5.5531645 0.037621938 0.25326285 1.447286e-38
5.6463132 0.057429086 0.24679999 1.4102636e-38
5.7290087 0.082987115 0.24130219 1.4101912e-38
5.6714444 0.10880156 0.28639582 1.7798416e-38
5.7617493 0.11802748 0.26112306 1.5766132e-38
5.8520303 0.14200544 0.24923508 1.5949436e-38
5.9412732 0.17506912 0.24322502 1.6595167e-38
6.0056076 0.19317679 0.2209706 1.6038742e-38
5.9798737 0.20421682 0.27932325 1.7338161e-38
6.0543017 0.22511089 0.25034103 1.6966485e-38
6.1493864 0.26691508 0.24686858 1.7059405e-38
6.2132158 0.29606649 0.2426409 1.7244879e-38
6.2614474 0.32338718 0.25295109 1.7061214e-38
6.3476229 0.37365782 0.2473072 1.6877185e-38
6.3981872 0.40887389 0.20772618 1.6785349e-38
6.4509959 0.43329382 0.24758761 1.5863395e-38
6.5262771 0.47865817 0.25581741 1.4203515e-38
6.4673176 0.57623559 0.23354395 1.4203155e-38
6.5349822 0.53363615 0.25714692 1.2359244e-38
6.4794827 0.62143064 0.24778275 1.5862675e-38
6.5167928 0.66868466 0.2533471 1.5955229e-38
6.5625257 0.72766405 0.25163081 1.5493892e-38
6.6270652 0.7809428 0.24983838 1.512511e-38
1.9696991 0.89283901 0.25268444 7.7465881e-39
2.0097601 0.8972109 0.26123655 8.0235323e-39
6.6760406 0.81581807 0.25365543 1.4848523e-38
6.7553878 0.8603788 0.25167257 1.4663771e-38
6.813108 0.89189363 0.23265179 1.466341e-38
1.9685361 0.92603278 0.25318283 7.5621968e-39
2.035835 0.94930804 0.2501815 8.1153692e-39
2.1396468 0.94068438 0.23857649 8.4841503e-39
2.2475028 0.97776526 0.23909314 8.8529315e-39
2.3114095 0.99768859 0.22305806 9.2213496e-39
6.7938719 0.90462065 0.28917819 1.3280841e-38
6.8501325 0.93191522 0.25529608 1.3925488e-38
6.9363337 0.97909975 0.24289396 1.3833291e-38
2.0752935 1.0135949 0.25251889 8.7610974e-39
2.1587956 1.064973 0.25216073 9.5915755e-39
2.2058747 1.0955724 0.23230736 9.960358e-39
2.3564546 1.0148177 0.24698529 9.3139054e-39
2.4504194 1.0456425 0.24685195 9.313904e-39
2.5488513 1.0782727 0.25071496 9.4060982e-39
2.6070619 1.0955932 0.2416382 9.3138998e-39
6.9763956 1.0156732 0.2583352 1.3187923e-38
7.0483398 1.0588644 0.2460067 1.3280118e-38
7.1066284 1.0932163 0.22901057 1.3003533e-38
2.1975093 1.1010211 0.29643273 1.0974507e-38
2.2463999 1.1408191 0.25074795 1.0329857e-38
2.3071964 1.1945882 0.24172352 9.9614328e-39
2.649941 1.1140798 0.26445663 9.4057381e-39
2.7438638 1.1467725 0.26504466 9.4057353e-39
2.839623 1.1819689 0.27445686 9.4979295e-39
7.1504407 1.1246365 0.25334013 1.3003531e-38
7.2397766 1.173637 0.24818955 1.3003533e-38
2.3581369 1.2355213 0.25399077 8.8547265e-39
2.4184005 1.2845603 0.24924593 7.4714347e-39
2.8941383 1.2037134 0.29437757 9.406094e-39
2.9502866 1.2228099 0.27887464 9.4979295e-39
3.0453742 1.2578276 0.28124246 9.4979295e-39
3.1394615 1.2921594 0.28761765 9.4979295e-39
7.2903686 1.204748 0.257723 1.3003531e-38
7.3509183 1.2411423 0.2484467 1.2911336e-38
7.4171953 1.2836702 0.24258175 1.2726944e-38
2.4637041 1.3295549 0.24498543 6.5491197e-39
2.5183408 1.3835613 0.24846198 5.1651077e-39
3.2596734 1.3354549 0.28034285 9.4057339e-39
3.3498323 1.3685275 0.26131317 9.3135383e-39
3.4236796 1.3928999 0.26679823 9.4057339e-39
7.471972 1.3264148 0.25065979 1.2358162e-38
7.5206461 1.3777579 0.24618982 1.1989378e-38
2.5572658 1.4324734 0.24924527 3.5970631e-39
2.6125844 1.4858681 0.2312526 4.519018e-39
3.4707103 1.4130756 0.25387338 9.4057325e-39
3.5499332 1.4441643 0.24259368 9.4057325e-39
3.6590652 1.4755177 0.25677136 9.4979281e-39
3.7412148 1.4904261 0.27133155 9.5901238e-39
7.5704579 1.4486303 0.2544384 1.1528041e-38
7.6036429 1.4907143 0.21724287 1.1435844e-38
2.664762 1.5204037 0.22792149 5.7175598e-39
2.7492125 1.5730517 0.22442582 6.7324292e-39
3.7672236 1.5119677 0.2325841 9.5901224e-39
3.8513482 1.5265858 0.24302578 9.774515e-39
3.947758 1.5455395 0.24835385 9.8667106e-39
4.0533047 1.5549424 0.26659015 1.0143296e-38
4.1430364 1.5587133 0.27108812 1.0604636e-38
4.249402 1.5607886 0.28081366 1.1987573e-38
4.3511248 1.5651722 0.28146538 1.2817695e-38
4.439548 1.5731825 0.2818301 1.3462709e-38
4.5276108 1.5875199 0.28742713 1.392369e-38
7.5871358 1.5282024 0.27586898 1.0513886e-38
7.6134267 1.5576732 0.23752204 9.9607125e-39
2.7992182 1.6044126 0.22616406 6.5476764e-39
2.8631911 1.6439122 0.22892691 7.4703529e-39
2.9355462 1.6900908 0.23208968 7.4699914e-39
4.1557417 1.6101886 0.22190343 1.0235493e-38
4.2531853 1.6267926 0.23613174 1.0789027e-38
4.3552766 1.642889 0.24792257 1.1526594e-38
4.4510632 1.6464332 0.25633729 1.244891e-38
4.5437932 1.6578612 0.25334799 1.3094282e-38
4.6379776 1.6629612 0.25933859 1.3923688e-38
4.7351046 1.6775694 0.27134606 1.4753093e-38
7.5947208 1.6248268 0.20822389 1.0145102e-38
7.653482 1.6476769 0.25615931 9.9607097e-39
2.9619493 1.7062302 0.23432785 7.5625472e-39
3.0435162 1.7594566 0.24214581 7.2859603e-39
3.1031277 1.7942734 0.28652468 7.2855987e-39
4.3946509 1.7136781 0.2029078 1.060392e-38
4.4662118 1.714821 0.2246583 1.1434038e-38
4.5546141 1.7308964 0.22881752 1.1987573e-38
4.6515961 1.7413489 0.2264483 1.2909172e-38
4.7510843 1.7566448 0.22457778 1.3554543e-38
4.843142 1.7500199 0.24212427 1.4568699e-38
4.9446878 1.7601285 0.26237911 1.5766529e-38
5.0129046 1.7956614 0.2531493 1.5858362e-38
5.7558966 1.7810225 0.29013485 2.3234016e-38
5.8411393 1.7889255 0.28825459 2.3141819e-38
7.6901774 1.7202458 0.24103776 1.1158534e-38
7.7176104 1.7657374 0.25259891 1.1250731e-38
3.153825 1.8328862 0.25354594 7.2859575e-39
3.2247834 1.8827316 0.25423902 7.377793e-39
4.6642809 1.8120674 0.20639259 1.1341844e-38
4.7659621 1.8309666 0.20914884 1.22638e-38
4.8542495 1.8394617 0.20531936 1.2909172e-38
4.9548154 1.8248854 0.21089397 1.4199914e-38
5.0512004 1.8417631 0.22187039 1.5305548e-38
5.1538749 1.8542513 0.2447398 1.6595929e-38
5.3252096 1.8844842 0.27660304 1.954655e-38
5.7734418 1.8291652 0.28060189 2.3234019e-38
5.840343 1.8630378 0.25406277 2.3234018e-38
5.9453239 1.8511146 0.25635949 2.2957788e-38
6.040009 1.8648055 0.26270488 2.268156e-38
6.1376057 1.87533 0.27897459 2.1114234e-38
6.2220387 1.8787069 0.29625738 1.9178485e-38
7.7657948 1.8416929 0.24652976 1.1527317e-38
7.8072872 1.8914758 0.25705564 1.1527319e-38
3.2753315 1.9214183 0.26103073 7.5625416e-39
3.3410215 1.9696816 0.24956675 7.3777916e-39
5.3632483 1.9366148 0.23990946 1.8163258e-38
5.430583 1.9100056 0.29384425 2.05607e-38
5.563828 1.9769549 0.27294216 2.1389743e-38
5.6117439 1.9939786 0.27529457 2.1389382e-38
5.8736124 1.9158112 0.25976965 2.3234378e-38
5.9352303 1.9621192 0.24435332 2.3234018e-38
6.0451574 1.9299562 0.21108186 2.2957787e-38
6.1299319 1.9317518 0.22616443 2.2404972e-38
6.2413626 1.9458431 0.24488004 2.074545e-38
6.3434458 1.9520346 0.26536879 1.8164331e-38
6.4367132 1.9528127 0.28790694 1.6320416e-38
6.5121942 1.9945023 0.27249333 1.5951989e-38
7.8379469 1.9509795 0.25047988 1.1619515e-38
3.3903756 2.0104141 0.26185024 7.5625402e-39
3.4525685 2.0556564 0.25027514 7.1012047e-39
3.5083532 2.0952146 0.2370379 6.7320634e-39
5.5455561 2.0168452 0.2256628 2.0191562e-38
5.6191001 2.0290182 0.24322957 2.1206074e-38
5.7595682 2.0680082 0.25273287 2.2127669e-38
5.8545451 2.0767741 0.27883673 2.2772677e-38
5.9735341 2.0290234 0.25479764 2.3234018e-38
6.0288243 2.076472 0.2528033 2.3234375e-38
6.3184896 2.0080996 0.20969535 2.1022396e-38
6.4546976 2.0290287 0.22539444 1.7979939e-38
6.5728612 2.0225654 0.26554942 1.4199919e-38
6.6232958 2.0533576 0.25039133 1.4753092e-38
6.7312889 2.0655015 0.26805359 1.4292112e-38
6.8495412 2.0928354 0.27183282 1.4568699e-38
7.874722 2.0413318 0.26247576 1.1988296e-38
7.9073787 2.0681705 0.22249319 1.1988298e-38
2.671593 2.1929183 0.28157505 4.3356987e-39
2.707433 2.1967633 0.28271282 4.7041183e-39
3.4976585 2.1048117 0.28511843 8.0231568e-39
3.5536592 2.1422329 0.25404066 7.0086475e-39
3.6152718 2.1855216 0.22947626 6.7324222e-39
5.7598505 2.1130805 0.20777452 2.1943636e-38
5.8713384 2.1243012 0.23581313 2.2588287e-38
5.9696517 2.1412232 0.24907924 2.2957429e-38
6.0589118 2.1323647 0.2473378 2.3234015e-38
6.1297545 2.1673365 0.22404122 2.3325852e-38
6.7562084 2.1342185 0.21772237 1.502968e-38
6.8749137 2.1419668 0.23807339 1.4384309e-38
6.9632411 2.1593277 0.24288602 1.4660895e-38
7.0640435 2.1659529 0.26510561 1.4292472e-38
7.1479502 2.1840491 0.26301464 1.4568699e-38
7.2526903 2.1951351 0.28778577 1.4108081e-38
7.8863659 2.1569135 0.2584998 1.2264884e-38
7.9124103 2.1238177 0.22969893 1.2080492e-38
2.5908828 2.293844 0.29529533 1.023585e-38
2.6678677 2.2634983 0.25149724 9.0380276e-39
2.7415509 2.2180703 0.23813277 5.1650979e-39
2.8451927 2.2667358 0.25704977 7.8384068e-39
3.6615739 2.2341294 0.25119317 6.9164519e-39
3.7206564 2.2834318 0.24613434 6.8242577e-39
6.0713592 2.2142243 0.20587203 2.3233297e-38
6.1410193 2.2119958 0.21060608 2.3325853e-38
6.9832482 2.2193687 0.20153366 1.4753093e-38
7.0419931 2.2126281 0.21848011 1.4753452e-38
7.157855 2.233495 0.22726658 1.4569059e-38
7.2721343 2.2560127 0.2335372 1.4384666e-38
7.3521981 2.2694027 0.24049394 1.410844e-38
7.4360962 2.2631719 0.26642925 1.4016244e-38
7.5565839 2.2816622 0.27803308 1.3924047e-38
7.6358061 2.2890623 0.29196894 1.383221e-38
7.8927999 2.2611182 0.25519574 1.2725502e-38
7.9093323 2.2455399 0.24624062 1.2541471e-38
2.5899923 2.3340993 0.27485141 1.0051099e-38
2.621515 2.3344936 0.24233107 9.590121e-39
2.8986223 2.3011925 0.25092077 8.3915806e-39
2.9501784 2.3347471 0.25683355 8.8525559e-39
3.0237572 2.3844531 0.26937538 9.1291428e-39
3.7675841 2.3275983 0.25297284 6.9164533e-39
